# 3D point list with one line of data per point:
#   POINT3D_ID, X, Y, Z, R, G, B, ERROR, TRACK[] as (IMAGE_ID, POINT2D_IDX)
# Number of points: 324, mean track length: 6.1663594470046084
5203 6.7698749453232656 5.3801596336462509 13.814594036084655 209 210 93 0.38332617429425925 9 4212 31 4185 33 3820 21 4170 1 4059 12 4117 23 3908 32 4205 6 4133 28 3773 20 3527 27 3800 22 3853 29 3973
5202 7.5724743289845087 4.8313575068944941 13.022682327957881 217 222 138 0.3846498988372532 12 4102 23 3900 31 4172 32 4186 33 4179 21 4155 28 4095 20 3900
5200 -4.7203265314138037 6.0254872495073286 13.280248572096543 210 211 149 0.39109710331317926 23 4174 21 4150 28 3756 20 3894
5199 -4.8620638259569828 5.8805454864417337 13.255665567478378 41 51 16 0.51585222953271415 23 3933 21 4149 28 4092 20 3893 27 4252
5198 -5.8238048437489844 6.004373646216993 13.057450638632222 214 210 111 0.28416883920131497 23 3941 21 4148 28 4091 20 3892 27 4259
5197 -2.1112957668087757 5.4173218876016138 12.916691214097671 201 206 78 0.42086945189196912 1 4048 23 3925 21 4142 6 4178 28 4081 20 3884 19 4206 22 4170
5196 -5.8288764036693399 5.5914565765247461 13.282787992553484 41 55 5 0.24094905746685163 1 4042 21 4134 23 3919 28 4074 20 3878
5195 7.3776880056407652 4.2127502835921105 12.873004137204235 185 200 100 0.24274988518972607 1 4029 12 4067 23 3877 31 3799 32 3798 33 3758 21 4128 6 3707 28 3739 20 3496 22 3815 29 3922
5194 -1.1138620506043875 4.8497631793399716 13.197202202067924 202 211 97 0.43590375106904122 1 4024 12 4093 31 4166 33 4222 21 4124 23 3893 32 4212 6 4153 28 4066 20 3864 27 3810 22 3790 5 4186 29 4291 24 3662 19 3803 34 3547 15 3635
5193 1.1326110878948454 4.4910536571508031 14.099158570086047 196 201 53 0.26759110652853429 30 4149 21 4108 1 3664 12 4066 23 3867 31 4145 32 3822 33 4190 6 4125 28 3704 20 3454
5192 -6.1933610780623729 4.1324787337656703 14.75375853782656 67 89 26 0.93761724450563255 1 4202 23 4104 30 4332 31 4341 21 4074 12 4287 28 4012 20 3825 24 3525
5190 8.042203976782254 1.4831440123991491 14.471430525876357 157 178 61 0.62873049116939372 32 4065 33 4052 21 4033 12 4234 23 4057 31 4290 1 4161 30 4281 6 4028 28 3993 20 3783 27 3624 22 4073 29 4198 24 4000 14 4403 19 4113 34 3947 15 4042
5188 -6.9919642479155728 1.4451274735853645 16.448471726415193 111 118 48 0.20794963206285835 13 4071 21 4000 20 3747
5187 -4.0652902151074519 -1.1790440116571357 19.716250275357194 77 86 40 0.41547971822107493 1 3835 12 3930 23 4023 30 3978 31 3986 32 4292 33 4305 21 3968 28 3925 20 3720 22 3998 24 3859
5186 -4.3740116478688309 -1.1416386022197851 18.705340096367504 36 34 11 0.37338117046561087 12 3929 23 3728 32 4017 21 3964 1 3382 30 3548 31 3520 33 4017 20 3719 22 4299 29 4426 24 3858
5184 10.092585026431957 -5.5507781991983096 19.561610933705545 55 51 27 0.44300515915512723 1 3777 12 3849 30 3909 31 3914 32 3928 33 3915 21 3936 27 3452 6 3905
5183 12.198506116664131 -6.3288869156052847 20.148100704352515 137 152 34 0.44172112303559929 32 3921 21 3932 6 3898 28 3888 27 3444
5182 0.13406818866440784 -5.1721812557653646 21.076628784139583 123 119 56 0.25062339299436204 1 4087 21 3931 12 4161 23 3989 30 4202 31 4228 33 4276
5181 -3.6270733271759954 -5.0221631151498807 19.894351254834845 153 168 77 0.14206327293785495 1 3770 30 3920 31 3923 21 3920 28 3874
5178 4.9174358280411656 -8.2916973165196719 21.017399065621628 124 143 36 0.50344435645307573 7 3353 11 3884 21 3904 9 3359 10 3476 6 3881 28 3863 5 2548
5177 -2.992602365608513 -7.6586410057890895 21.054868864493848 61 77 33 0.35000196925291799 12 4138 31 4206 32 4241 21 3895 1 4069 33 4252 28 4173 22 4247 29 4361 24 3790 14 4258 15 3757
5176 8.2827043978046628 5.1215171215683402 12.629128435913096 179 184 81 0.75877351562837769 12 3806 32 3850 21 3851 28 3227 27 2299
5175 4.7480677362985046 5.2997017491437735 13.030969457927108 233 226 103 0.289139530363349 12 3800 23 3562 32 3861 33 3828 21 3850 1 4058 31 3854 6 3226 28 3210 20 2958 27 3216 22 3852 5 3782 29 3418 34 3688 35 3280
5174 4.0099419949258364 5.2296131489652513 13.054609013515353 196 201 107 0.35686915945925834 1 3723 12 3798 23 3554 31 4189 32 3859 33 3842 21 3840 6 3770 28 3771 20 3519 22 4186 5 3781 29 3968 19 4240 24 4085 34 4038 35 3794 2 3780 4 3694
5173 7.0329049105626371 4.8997411434689031 14.175935057279821 138 158 24 0.23493001678192291 1 4041 12 4086 23 3507 31 4159 32 4174 33 3777 21 3832 6 3750 28 3752 20 3511 27 3788
5172 4.6813271535461736 4.8357741083864658 13.448609049827438 230 234 116 0.1902147013129516 1 3706 12 3766 23 3527 32 3835 33 3804 21 3818 31 4170 1 4037 6 3760 28 3749
5171 -1.3127077206325424 5.1104886344005429 13.274446584480842 208 217 111 0.40864801563418479 1 3698 31 3840 21 3814 12 3789 23 3552 32 3875 33 3860 6 3791 28 3736 20 3485 27 2367 22 3810 29 3942 24 3660 19 3801 34 3545 15 3647 35 3656 2 3634
5170 -5.6048068501806521 5.6493013016722857 13.328545537209683 193 196 83 0.57904185232264649 1 4043 23 3568 21 3809 23 3920 28 3734 20 2881
5169 4.5824500797799264 4.6876846383660036 13.803997163904075 168 189 122 0.4094824279544837 12 4074 33 3789 21 3808 23 3875 31 4155 32 4183 28 3168 20 3490
5168 -0.66090072081405216 4.9248450192211974 13.196440627310514 202 206 96 0.36084306987210402 18 3727 21 3803 28 3723 20 3474 5 3817 26 3195 4 3164
5167 -2.2660110042567396 5.0853084108569471 13.355684980374573 78 90 27 0.66998839806575883 18 3721 21 3797 6 3807 28 3718 27 3222 5 3294 26 2368 4 2307
5166 1.3305140096950883 4.5231020700526061 14.080686597190118 92 115 27 1.0996729554869666 32 4180 21 3785 33 4191 20 3455 14 3880
5165 -0.65792442304881982 4.74572240130344 13.357072735823547 198 207 92 0.41416780267232489 1 3676 12 3763 23 3521 31 3823 21 3784 6 3219 28 3142 22 3189 24 3125 29 3348
5164 -0.64263959066077858 4.7359168337397399 13.312014842939444 198 207 92 0.67054539714353334 1 3675 12 3762 23 3520 31 3822 32 4200 33 4212 21 3783 28 3141 20 3453 22 3190 24 3126 29 3349 14 3878 19 3163 34 2946 15 3106 35 2229 2 2220
5163 6.9010135239747079 3.4380156634290708 15.946010114859595 33 37 6 0.69914329304434031 23 3435 21 3743 1 3609 12 3671 30 3762 31 3738 32 3744 33 3702 6 3667 20 2809
5161 5.9132832360396206 0.34384584510109295 16.838587543938338 136 149 57 0.60961739715111662 30 4015 21 3623 6 3578 20 3313 14 4107 19 4056 34 3884 15 3968
5160 -4.2593574365996139 0.22809847842192602 17.210472151243238 138 143 54 0.21911865934982794 12 3951 23 3743 31 4022 33 4045 21 3588 1 3862 30 4005 32 4041 28 3506 20 3260 22 3554 29 3692 24 3451
5159 9.4088365731628407 -1.3892351765939752 16.546488821429961 206 211 122 0.1977863285987419 12 3926 23 3725 31 3984 21 3584 32 3999 33 3982 28 3501 20 3253 22 3548 24 3937
5158 9.2957356383514789 -1.1638418921620648 16.48333947707189 105 125 36 0.15703759379105181 12 3471 23 3231 31 3535 32 3543 21 3583 33 3486 28 2842 20 3270
5157 -8.9789065925623781 -0.77225816634857403 17.793541896347101 43 49 14 0.22245825350063336 16 3994 21 3543 28 3444 20 3711
5156 3.0329084939808362 -2.1811438068022206 17.105591461221891 158 174 88 0.43204728103363266 13 4028 21 3537 11 3985 28 3456 33 3477 20 3208 22 3511 29 3632 24 3441 14 4025 34 3791
5155 -4.7390760692462113 -1.4675002145165146 17.269499864057185 39 37 16 0.18293328943417314 1 3365 30 3529 21 3532 31 3510 28 3438
5154 9.8242478499623296 -3.7593191558369039 17.940924106190156 187 194 98 0.22258342663565359 12 3885 21 3518 23 3676 31 3432 32 3443 33 3392 6 3445 20 3190 27 2723 14 4030
5153 7.6235943861451272 -4.2925447322242638 18.352709955749898 60 64 17 0.19812522352890496 1 3792 12 3875 30 3930 31 3935 32 3953 33 3936 21 3487 23 3664
5152 10.401858059386335 -5.3012824141251214 19.852982491393501 207 211 98 0.25643092505895948 11 3951 21 3480 6 3426 27 3460
5151 8.6942968098642339 -5.5218206306103168 20.520053072309569 108 111 31 0.59342761109426923 12 3859 21 3477 1 3781 30 3917 6 3424
5150 7.595154536529706 -4.9374042278328956 19.475725835019723 28 26 2 0.18094707858466799 1 3787 30 3416 31 3928 32 3942 33 3930 21 3475 23 3658
5149 -8.3211817761868208 -2.8304808398109933 18.477011030563212 211 221 147 0.31964822328677589 13 3486 21 3473 6 3519 28 3394
5148 5.3315035968412623 -5.5037683633668442 18.965610267842877 193 194 98 0.11125472714969102 1 3237 30 3400 31 3386 32 3399 21 3456 28 3375
5147 -9.8543947171825881 -4.0335856770045524 19.930621937365412 48 61 16 0.36670077775889437 1 3276 30 3432 21 3451 28 3371
5146 2.9746572613389661 -6.4805569148038522 20.611090746271056 58 69 17 0.5980660265004073 12 3837 21 3436 1 3761 30 3893 31 3896 32 3919 33 4259 6 2657 28 3355 22 4260 29 4381 19 4275 34 4283 15 4289
5145 4.4304362286333294 -7.872318282064632 22.432167555516425 95 127 37 0.4649946069369133 1 3211 12 3276 30 2579 31 2547 32 3360 21 3426 33 3332 28 3339 22 3412 24 2655 29 2772
5143 2.1529862790803604 -8.1055203775063802 20.933568854060564 41 45 10 0.74640298261803462 11 3883 21 3384 28 3320
5142 -10.156529535146547 -8.1395832250620366 22.546381576857989 195 197 150 0.15769569366798844 1 3180 12 3259 30 3342 31 3330 21 3370
5141 -11.115705006189456 -7.5948005174987756 21.403501360800661 208 215 181 0.25500650161018212 30 2571 21 3363 1 2369
5140 -3.2148863768763163 -9.2326114651984295 21.828635857092735 30 29 8 0.10698977801970273 7 3856 8 3907 21 3356
5139 -6.1938595341085039 -8.9760303691919745 21.422371253596182 110 127 75 0.034632069582414972 13 3314 21 3353
5138 8.1432795057315417 5.3995996110934881 12.846589042820707 201 207 115 0.40062719282846343 12 3233 33 2408 21 3332 6 3214 28 3242 20 2134 27 3201
5137 8.6038220046336811 5.0676601888160633 12.905347453371876 83 104 17 0.14702302728511418 12 3211 21 3318 20 2113
5136 7.0503566441456549 5.5498872830899089 13.817923234869244 112 138 23 0.25088301107226307 23 2150 21 3316 28 2417 20 2110 27 2351
5135 4.3406214663162901 5.2117320800108899 13.124483044269367 191 194 81 0.49779150635396757 1 3153 12 3207 31 3275 32 3860 33 3240 21 3293 6 2381 28 3199 20 2934 27 1148 22 3275 19 3257 29 3395 34 3095 35 3260 2 3233
5134 3.6456897523695959 5.3106380840439931 13.343748103634123 128 153 72 0.39366116874711843 1 3152 12 3225 23 2932 31 3274 32 3295 33 3258 21 3292 6 2378 28 2376 20 2087 27 2342 20 2933 22 3274 5 2370 29 3415 24 3251 19 3255 26 2374 4 1030
5133 3.3062378234847589 5.4035754854994442 13.26703368586436 55 60 1 0.33920545992378598 23 2164 21 3291 31 3273 33 3257
5132 4.7498221444278279 5.0068853883123747 13.468794847357934 57 60 13 0.37340770798482265 1 3142 12 3196 23 2919 31 3239 32 3263 33 3222 21 3279 20 2072 28 2378
5131 6.7686368308032332 4.8763403526834104 14.14432883837936 36 51 6 0.18064605830358829 1 3111 12 2327 23 2079 31 2405 32 2370 33 2334 21 3262
5130 6.7781197130798789 4.8843701495065623 14.167453560748726 36 51 6 0.17688136719643849 1 3110 33 2333 21 3261 12 2326 23 2078 31 2404 32 2371 20 2915
5129 4.3883100681281624 4.8972898395804787 13.671790871273368 194 196 94 0.15060186687546134 1 3130 12 3183 23 2906 31 3237 32 3261 33 3209 21 3258 6 3196 28 2361 20 2895 27 2291
5128 -1.6481685114519253 5.1385975506339294 13.091634840255677 228 227 90 0.27377362065079724 1 3118 12 3218 23 2928 31 3265 33 3291 21 3252 6 3273 27 3235
5127 -2.4819921843024852 5.3316568897651688 12.999873188760978 197 198 71 0.33927926064334207 1 3709 23 3557 21 3250 22 3226 24 3110 19 3813 34 3544 15 3631 35 3065 2 3032
5126 6.6077685783334861 4.5640696836114163 14.334491070196425 198 209 112 0.14823591474863221 1 3087 23 2880 31 3204 21 3242 12 3153 30 3255 32 3227 33 3172 6 3154 28 2344 20 2873
5125 1.250044517825122 4.8060552016092233 13.791977614619704 152 171 53 0.31002384308736203 31 3224 21 3236 1 3081 12 2351 23 2100 30 3265 32 3258 33 3218 6 3203 28 3147 20 2869 27 3197 22 3211 19 2338 34 2992 15 3147
5124 -5.3930021872702731 5.2345846893314327 13.566840753679562 214 208 58 0.35975229637696149 31 3242 21 3230 20 2865
5123 7.2247218193702443 4.0379873363988468 13.026059429915263 57 77 6 0.15814026982184615 12 3141 21 3224 1 3089 23 2055 30 3258 31 3205 32 2319 33 2281 6 2252 28 3154 20 2876
5122 6.4133365013735544 4.2216127433457977 13.749094194855518 74 85 10 0.55660495192069637 1 3076 23 2871 21 3221 12 3139 32 3210 33 3155 20 2874
5121 -0.27391861948188834 4.6539239162762476 13.473749570705527 176 186 88 0.25727745119366868 1 3080 32 3843 21 3211 12 3764 23 2897 30 3836 31 3808 33 3237 6 3220 28 3127 20 2853 27 3195 22 3191 29 3350 24 3128 14 3879 34 2948 19 3152
5120 0.41495277235950789 4.6104544250164627 14.221048202788596 95 111 17 0.53372101964802521 1 3065 12 3148 23 2876 31 3210 32 3248 21 3196 30 3248 33 3201 6 3202 28 3129 20 2854 27 2286 22 3193 5 2347 29 3899 24 3664 14 4231 19 3784 2 3654 35 3676 26 2306 4 1062 25 1028
5119 -6.6431484861234784 4.4351810738214947 13.899332133504485 75 86 17 0.35684239120946393 1 1106 21 3162 30 1260 28 3065 20 1927
5118 -3.096755101347779 4.1087271798568326 14.268149599838342 213 219 113 0.45603944649786793 1 3626 12 3723 30 3783 31 3773 33 4184 21 3151 23 3479 32 4164 28 3664 20 2798 13 3225 11 3251
5117 -4.8609664659083416 4.0713285026498847 15.516897166128949 45 54 17 0.36378510483336385 23 2818 21 3138 1 2980 12 3096 30 3184 31 3751 32 3220 33 3197 12 3701 20 1909 28 982 24 2101
5116 2.2912493329619901 3.154772537885612 14.85917651116098 56 70 19 0.40034216222683344 30 3748 31 3113 21 3129 1 3590 12 3665 23 3419 28 2180 20 2773 24 3629
5115 2.3143150200608171 3.18384047542592 15.016986775940477 56 70 19 0.6807093268715102 31 3114 21 3128 1 3589 12 3664 30 3749 23 3418 33 3714 28 2179 20 2774 22 2292 29 1128 24 3630
5114 -6.6750972324970341 3.8966553063630225 14.212144311491313 165 171 28 0.34108088360771083 13 3164 21 3119 28 3036 1 2990 27 3169
5113 6.0140229282247191 1.9636953609508996 14.814550982677778 49 51 6 0.70830251420058621 13 3799 21 3080 28 3606 22 3676 29 3798 24 3990 19 4118 34 3935
5111 -7.3499374378928213 2.8232888794549145 14.775868798458966 48 53 8 0.30554394324729361 30 2233 21 3040 1 2039 20 2685 24 1922
5110 -7.8578984986292744 2.52777280027439 15.211918319732952 46 51 10 0.40749000020599935 18 3525 21 3018 20 2646
5109 -0.83534248777661513 1.270463393366793 16.163530983386213 168 174 114 0.4842030496184308 11 3670 12 2924 13 3685 30 3003 32 3035 33 3006 21 2989 23 1740 31 2085 1 809 28 2903 20 2617
5108 7.8413499002723919 -0.11432345639128688 17.281710581783109 169 181 47 0.36334783798686271 1 3448 21 2963 32 2921 33 2869
5106 -8.4495532255645749 1.4623464734147826 16.374963643391684 32 41 1 1.0629699358476103 1 3464 21 2953 20 2598 27 3027 24 1819
5105 3.5287893408637117 -0.059244731839935068 16.045251330999168 190 206 112 0.3709829971021319 31 3584 21 2944 1 3430 12 3511 23 3279 30 3603 32 3595 28 2857 20 2568
5104 3.6700762204999826 -0.37040094990354933 16.061558577950002 180 190 89 0.40094090810624128 31 2896 21 2923 32 2916 33 2863
5102 5.5877538795347705 -2.0786069558832847 16.825376766911848 199 206 100 0.63385581217997344 1 3360 12 3420 21 2860 6 2794 28 2762 20 2479 24 3475 14 4055 19 3514 34 3349
5101 4.9142820642430056 -2.4003054900892256 17.261522222673008 57 55 18 0.54164530723563875 23 3178 30 3492 31 3475 21 2835 1 3347 12 3411 32 3505 33 2760 6 2789 22 2820 29 2949 24 3454
5100 -6.9415545185810767 -1.0653042630949128 17.597542921407683 51 50 29 0.39211797866348808 23 2515 21 2829 12 3452 20 2449 22 2810
5099 -7.3049612156263084 -1.6943712869987115 18.198946525202818 44 48 16 0.18065425631384596 7 3541 21 2814 6 1927 28 2718 20 2432
5098 -0.87505063796796834 -2.6989407526044946 17.387321674622605 49 45 16 0.49216583209331372 1 2584 12 3395 23 3158 30 2765 32 3486 33 3459 21 2798 28 1693 20 2410
5097 5.9556237464221802 -4.0945457737089326 18.640817466086286 225 228 138 0.53955409768573381 13 3535 21 2780 6 2715 28 2694 20 3164 23 3113 1 3290 12 3355 31 3429 32 3439 27 2720 22 1754 5 2685 29 1838 24 1787 4 2624 25 2677
5096 5.3498384003355266 -4.2838431689632559 18.808888393127216 183 188 77 0.19052091103103697 16 2719 21 2776 6 2709
5095 1.3481824595890846 -3.6531514524528772 17.935903870194004 49 49 14 0.45089388162970073 11 2772 31 3442 33 3418 21 2774 13 2751 23 3672 32 3450
5094 -3.4417512974297182 -3.6870194012540694 20.446261616787204 74 95 36 0.24715765451757762 9 3509 21 2773 20 2391
5093 -4.7474604981024324 -3.9953665030968142 19.842630293927595 186 204 128 0.33429232332868974 1 3283 12 3359 23 3120 30 3444 32 3459 33 3428 21 2748 28 1619 22 2710 24 2650
5092 -8.7204830347373701 -3.5802869367175303 19.056549127332612 191 203 130 0.18252991301363114 16 3448 21 2743 6 2800 28 2627 5 2832 26 2737 4 3508
5091 10.623205112778638 -6.1367598380662622 19.549847648238302 67 74 23 0.74341185248537933 12 2556 31 2587 33 2584 21 2741 22 2705 29 2832 19 2635
5090 4.208446681769674 -5.2220985268942748 18.734455121115111 45 36 22 0.51036387336673483 12 3324 32 3410 33 3374 21 2737 1 2499 30 3398 31 2610
5089 4.4330321432933513 -6.56920452855221 23.160880688316006 36 39 12 0.59735966907523486 11 2695 21 2736 13 2691 6 2686 28 2648
5088 3.8501807366573955 -6.2117410275073306 22.478143247391152 30 33 6 0.45003676663858488 11 3428 13 2689 21 2735
5087 9.8891501715826706 -6.2354863576968551 19.083650074569093 246 239 121 0.31966226215277976 12 3306 30 3377 31 3361 32 3380 21 2723 1 3233 33 3335 6 2625 28 2638
5085 9.0138936119222741 -7.570326906425942 21.995859629953497 55 70 14 0.12640408103855244 1 2426 21 2700 30 2599 31 2562 28 2626
5084 -1.3503217607097482 -6.0735006632958184 21.057545911311962 36 42 4 0.46204360064708538 11 2648 13 2634 21 2694 28 2598 30 1657 31 1598 1 1493 12 1542 32 1576
5083 -2.9273104965357817 -5.5739476550712892 20.227048107881647 43 54 11 0.25013347040411577 16 2596 17 2657 21 2691 6 2697 5 2696
5082 -4.05124948125163 -5.586225027485165 20.237740949727353 31 44 0 0.25066532654716495 32 3415 21 2690 24 2597
5081 11.34052000708467 -7.6784444052597314 20.293397305468488 56 67 12 0.2843246608409129 8 3399 10 2733 21 2680 9 3365 9 2591 6 2561 27 2595 5 2536
5080 11.05903810958652 -7.6292337660058456 20.436978713988591 110 126 61 0.31290618468886711 11 2657 21 2678 6 1445 27 91
5078 6.62313901845181 -7.2830043043084007 20.498296623215474 150 168 93 0.072367564541522086 1 2423 12 2511 30 2582 31 2548 32 2573 21 2673 28 2603
5077 6.62313901845181 -7.2830043043084007 20.498296623215474 150 168 93 0.072367564541522114 12 2512 30 2581 31 2549 32 2574 21 2672 1 2424 28 2604
5076 5.2549839688647912 -8.0317991835171512 22.15233050512019 117 126 75 0.35578048300744075 12 3264 32 3344 21 2662 1 3198 30 3351 28 2582
5075 -5.3027176869194124 -6.2828940509086344 20.106578146627889 215 220 142 0.16543844295451232 11 2607 13 2574 21 2654 19 2529 15 2495
5074 0.16996563984370738 -7.7026514980265368 20.846436524851388 45 55 19 0.40592627338360043 12 2483 32 2549 21 2638 1 1335 30 1515 31 1447 6 1471 28 3318 22 3386 29 3511 24 3317
5073 2.5517797492725705 -8.2380294506029585 21.238556152363689 181 203 109 0.19393594637184169 13 3379 21 2624 6 2572 28 1461
5072 0.64632044754955409 -9.1043565877976231 22.843399020132573 35 35 12 0.26919778470847422 11 3347 13 3368 21 2621 28 2526
5071 3.4734106656565946 -9.5712184244753828 21.546441598681934 22 19 9 0.33258318745947951 13 3352 21 2594 11 3857
5070 -3.4654751452994996 -8.7035886554305808 21.288376675456732 36 38 16 0.22216087226472525 8 3383 21 2589 9 3896 10 3993 7 3866 6 2566
5069 -3.7942771596003055 -8.8387713726743709 21.44287351179231 32 36 5 0.28462575568939469 11 3332 13 3325 21 2587
5068 6.8288411972769456 -9.9422106800654433 20.278742357444862 137 153 28 0.19178115445119789 13 3337 21 2581 11 3324
5067 1.9786483130147163 -10.15836342265516 22.534079418241625 34 30 21 0.12873560990918886 10 2682 21 2578 7 3306
5066 -1.1753822893569423 -9.6193277779107245 21.883208358622149 193 205 143 0.41308629716632234 30 2495 21 2575 24 2508
5065 7.280983807174338 5.474411539275617 14.028804630820996 46 66 1 0.31648743937610752 1 2338 12 2404 23 2149 31 2449 32 2459 33 2380 21 2522 6 2334 28 2416 22 2505 29 2580
5064 6.1302953794763075 5.6275275838015046 14.028648987053808 63 77 10 0.27401268585010641 23 2145 21 2519 31 2465 32 2476 33 1311 12 1351 28 2413 20 2106 27 2348 22 2502 29 2578
5063 4.4629407102334486 5.3491710486995565 13.105516255826126 72 96 22 0.24967343387899396 12 2425 32 2475 21 2518 6 1203 22 3290 29 2575
5062 2.5308706164234325 5.6348426482551597 13.07322645510355 182 188 54 0.32021475789887788 23 2183 33 2478 21 2512 6 1242 28 2394 20 994 22 2478 29 2598 34 2267 19 2467
5061 1.9849298400804978 5.5738561086712046 13.143470897180796 107 112 0 0.27086596032883348 23 2181 21 2510 33 1375 6 2421 28 2393 20 992 27 1197 22 1310 5 2403 29 1392 26 2388 4 1091 25 1088
5060 -5.7529696237867034 6.3413807584332291 13.353541720192613 193 203 105 0.38454530621273386 23 2984 21 2500 28 1226 20 2101
5059 3.4834579616495764 5.2946821256188423 13.338449027700269 64 73 15 0.32125419198503563 23 2142 21 2491 32 1353 1 1283 6 1202 24 1295
5058 -5.2223040298964314 6.0500451353875881 13.551066335299762 150 168 44 0.37640848189159981 1 2323 21 2482 23 2190 28 2369 20 2922
5057 2.4810355593658167 4.9261785979895194 13.472199381406371 241 230 122 0.22601790702093663 31 3235 21 2452 20 2058
5056 2.0455156922818896 5.1048630880498154 13.509919445319241 86 94 24 0.47607675515435866 32 1351 21 2451 6 2377 20 2912
5055 -1.9476906504582849 5.2295376646533356 13.012312988961636 82 98 4 0.3537115846336879 1 2308 12 2417 23 2157 31 2461 33 2489 21 2445 28 2327 20 2045
5054 -0.15667360091408589 4.911191554891146 13.712431084350632 140 165 74 0.21591747367316289 1 2269 12 2371 23 2092 31 2415 32 3269 33 3254 21 2425 6 1197 28 2305 20 879 22 2404 5 2383 29 2514 24 2296 19 2333 34 2126 15 2299 35 2261
5053 -4.7276819796495406 5.4744349855306806 13.887237731428637 133 143 70 0.3296179142145893 1 1197 21 2421 12 1342 23 1005 31 1355 28 2302 20 2025
5052 -6.0854294698040476 5.2560836121833452 13.172215545662826 179 183 59 0.27178441965233413 1 3091 21 2419 6 3323
5051 7.3656432906881806 3.9670803269617183 13.003377933857911 188 201 94 0.17031640134582865 12 2287 23 2026 31 2361 32 2318 33 2283 21 2415 6 1044 28 1137 20 868
5050 7.3572418182228807 3.9646450078751179 12.986748533007912 188 201 94 0.226430423911538 10 2451 21 2414 28 1138 1 2266 12 2286 32 2317 23 2025 31 2360 33 2282 20 869 22 1250 24 1328
5049 -2.4905668687898714 4.6207728349740513 13.694307782684476 92 94 1 0.15563526815421244 12 2318 30 2407 31 2387 33 2440 21 2389 23 2065 32 2439
5048 -6.5651127913807432 4.1659448739904157 14.082481832714205 225 223 110 0.19463912768935915 13 3194 21 2305 6 2390 20 2781
5047 5.4225356478595561 3.0190275702674056 16.508273240549091 49 48 7 0.29989180905121121 23 1883 32 2194 33 2164 21 2279 12 3027 30 3131 31 3087 20 1904
5046 -4.1399374741395407 3.3508336539311054 15.329587795701054 51 57 18 0.5919964779232032 11 2318 13 2230 21 2239 6 2274 28 2123 20 2729 27 3128
5045 -4.4917820984846859 3.4963165984966702 15.422105627685367 178 190 121 0.17581103584209137 13 2228 21 2238 11 2341 6 2273 20 1884
5044 -4.4992642684876838 3.500060488994309 15.450354468665001 178 190 121 0.15278934024482899 13 2229 21 2237 6 2272 28 2144 20 1883
5043 9.4161500369457034 1.6008407428970062 14.287439470453908 174 194 93 0.14127623509557621 12 2962 21 2219 20 2724
5042 0.87519236112793908 2.274069100992449 16.746761228989445 63 69 27 0.19814203024257232 1 2032 12 2972 23 2714 30 2206 31 3028 32 3060 33 2139 21 2206 20 1832
5041 8.248844443757454 1.1474887956646169 14.547043309848592 194 212 123 0.31105629915004535 12 2049 23 1757 32 2050 33 2024 21 2170 1 2885 31 2095 6 1990 28 2095 20 1814 22 2184 14 3196 34 2922 15 3098
5040 8.2174279211566166 1.1037271640928066 14.711005987280974 69 69 33 0.21923339084772378 1 1994 12 894 23 1756 31 2093 32 908 21 2169 33 836 6 744 28 2070 20 1813 22 928
5039 -7.3467421260082952 2.4470468602107283 15.279534231218532 172 183 130 0.12022890453314629 7 3148 16 2230 21 2151 17 3190 6 2237 28 2016 20 1771
5038 3.6301197908455616 1.0439207736019056 17.664449052970006 91 110 39 0.2354944638474214 23 2655 31 2972 21 2138 12 2907 30 2993 32 3004 33 2972 20 1759
5037 -6.7309274770363858 1.99326599354898 17.729672570778142 110 129 66 0.61543625348711872 32 3071 21 2133 19 1953
5036 4.5798992870426769 0.9418571706976091 15.167807461617958 196 206 114 0.96456251042901153 23 1726 21 2124 6 780 33 831 1 824 28 2029
5035 9.1210896691858778 0.049189627553115609 15.173879331178268 150 178 103 0.26724423648928847 33 726 21 2109 12 1971 32 804 28 785 20 509 22 2087
5034 6.2199093529987675 -0.02383719333267827 18.012581451746438 133 154 49 0.098906593082004959 1 2787 23 2597 30 2945 31 2921 32 2934 21 2085 12 2847 6 1965 20 1721
5033 5.9379015413741527 -0.049868526450798478 17.988487519300158 100 112 35 0.28433815388615258 1 2785 23 2595 30 2943 31 2919 32 2932 33 2892 21 2084
5032 -5.1517622928923741 0.91178281031446784 17.288018068554265 50 51 16 0.52720633474010592 12 2011 31 843 32 2056 33 2074 21 2073 1 746 30 896 6 2083 11 3004 13 2984 20 2580 27 2983
5030 8.1851632265317846 -0.73300923724606737 15.940855082991423 195 205 93 0.56291725990570363 32 1909 21 2048 12 1910 31 1958 20 1684 27 585
5029 8.1764895374825848 -0.88527738202962791 16.003449971519085 160 168 103 0.37534239213496184 31 2870 21 2047 28 1914 22 2009 29 757 24 2069 14 3688 19 2883
5028 3.5942329695032869 -0.24424406336650323 16.172011944633027 90 97 24 0.14262709071895405 11 2051 13 2048 21 2039 6 684 28 1932 20 1679
5027 -1.2044264739412902 -0.10141046762930427 17.233007055606485 42 46 3 0.49897760971112604 12 1944 23 2576 30 2029 32 1979 33 1992 21 2035 6 1983 20 1657
5026 -4.7316501764152781 0.3577885479100697 16.953600649938956 174 184 75 0.2294857829560612 1 1867 12 1981 21 2031 23 2613 28 1900 20 1650 6 2978 22 1994
5024 10.142401933443834 -1.2032006813372995 16.277786692302801 139 165 97 0.25768938607162223 12 1865 32 1865 33 1819 21 2024 23 1574 31 1932 28 1917
5023 5.1844455529332931 -1.1002672417873229 15.850543875526613 205 215 116 0.46978425098944637 12 1879 21 1986 20 1607
5022 5.0844006609162227 -1.4052876252953588 16.551818169862802 213 220 94 0.23616881412541091 12 1858 31 1905 32 1879 21 1956 1 2694 23 2510 33 2807 28 1870 20 1605
5021 2.2333478845514896 -1.5343802527567076 17.352833438469808 219 214 96 0.14670236314974611 32 1873 21 1954 12 1850 23 2507 31 1897 33 1849 1 1776 30 2851 20 1567 6 1860
5020 -8.934669225118963 -0.17321175421924526 17.212784629489885 36 39 9 0.46121280740310377 18 2716 21 1943 28 1823 20 1548
5018 1.2283111130749111 -1.9609147896395869 19.284268420048711 27 27 11 0.75412463967781507 11 1900 13 1871 21 1930 28 1804 20 1534
5017 -3.9265107753542439 -1.4143380078276775 19.65744847048887 124 143 56 0.96819062977097725 11 702 13 629 21 1920 6 1935 28 1795 20 1526 24 542 29 623
5016 -9.0654488684587751 -0.54663165523696444 17.817771383147878 150 168 92 0.16417031504657842 7 2920 21 1912 28 1789 20 1517
5015 5.3140332119003979 -2.7751718011093556 17.623034678682124 159 174 105 0.24838174128784621 1 2611 12 2693 23 2436 30 2768 31 2737 32 2781 33 2723 21 1885 20 2444
5014 -0.48893282632336726 -2.2881333717937498 17.502759889020947 159 177 98 0.082350839350456381 1 1714 12 1765 23 1448 30 1875 31 1839 32 1817 33 1800 21 1877 6 1817 28 1747 20 1475 22 1835 19 1685
5013 0.11049107338399977 -3.1962444153892839 20.152392442816055 38 44 12 0.22318811360422519 11 1819 13 1779 21 1849 20 1437
5012 -0.66447500473123366 -2.3600609690615024 17.616464242177447 35 42 2 0.36485263793019024 1 1695 12 1764 23 1447 30 1874 31 1811 32 1815 33 1797 21 1847 20 1436 22 1834 29 1905 28 1716 24 1741 14 1756 34 1558 15 1758
5011 9.3193029356695334 -4.0977531972981112 18.263844058348223 76 81 18 0.23625607567792239 1 2546 23 2374 21 1827 31 1689 32 382 33 1625
5010 7.9251252312433511 -4.3224595450086429 19.051505603955739 55 58 10 0.22792647256080684 1 1603 12 1650 23 1341 30 1745 31 1687 21 1825 32 1666 33 295 28 1700 20 1384
5009 6.6359761028041291 -4.4834703093166359 18.888871432801128 53 54 14 0.26564459728573592 31 1684 32 1642 33 1622 21 1794 6 1619 28 1681 20 1355 27 284 22 422 29 429 24 563 14 1768
5008 -10.568222997536687 -2.5547964673316557 19.298863205716788 155 169 106 0.19538327618213844 1 1657 21 1776 30 1857
5007 -1.5029826037787979 -4.0169930926166568 19.067213451479464 113 120 35 0.19162360159216102 8 3525 9 3482 21 1764 6 2751
5006 -7.9738953030622381 -3.1176745076461017 18.947561272046027 48 54 16 0.13273352806801506 1 388 21 1757 28 331
5005 5.8578783936048815 -5.2128353320974297 19.364462488845266 63 58 8 0.15983148574021264 12 263 31 262 32 245 33 215 21 1740 1 226 30 348 28 1627
5004 -10.064950957866881 -3.6546778275792486 19.726737235638272 184 191 112 0.11275250578907706 1 1579 21 1721 30 1778 28 263
5003 -1.4106636643979034 -5.1937213982732064 20.268449490200172 167 181 120 0.058300710143069798 33 1613 21 1705 23 1270 28 1604
5002 -3.0469956978362269 -4.8147076002120111 19.634117631779993 30 37 3 0.50434976789092056 12 290 31 293 32 356 21 1701 1 256 23 34 30 375 33 1632 6 361 28 1602 29 1752 24 1562
5001 -5.8389804223805033 -5.0481712529871698 20.356911539529566 60 78 18 0.20510910127219706 1 1510 12 1610 30 1708 31 1649 32 1649 33 1630 21 1671 28 1571
5000 0.15136486442647773 -6.2163823642029206 20.288335463060911 92 101 34 0.93865311403454021 1 1464 12 1517 31 1575 32 1556 21 1644 6 1586 28 1544 27 1599 22 1591 29 1672 24 1571 14 2629 15 1558
4998 -9.343436986003324 -5.7349799891417739 21.293346690687049 171 182 124 0.089446675911024454 1 1480 12 1551 30 1676 31 2628 21 1621 6 1663 28 1516 22 1578 24 149 14 1461 19 1424
4997 -11.482891929907014 -5.7628269750887711 20.610653388077484 142 164 81 0.11848328103922556 1 2446 21 1591 30 1637
4996 9.321877493250593 -8.3887345394672295 20.635686766740488 184 189 108 0.16429513922104147 30 2525 21 1584 31 2491 1 2364 12 2457 6 1404 28 1500 22 1539 24 1630 14 2645 19 1391
4995 -7.4930284749634914 -6.5320489838514542 20.627601064605052 200 211 138 0.34219588811589519 16 2544 17 2595 21 1566 27 1562 22 1518 5 1653 24 1399 26 1564 4 1596 25 1548
4994 -10.319775064803782 -6.5888241822792368 21.588000748909231 134 156 69 0.21566139783265922 1 2432 30 2625 31 2588 21 1556 28 2535 22 2602 24 1376
4993 -11.393232362487389 -5.8480956501071706 20.337589793960632 49 56 23 0.34159337078149393 1 2445 30 2622 21 1555
4992 7.0727278474373199 -9.2505342153919923 22.342705529673704 31 32 15 0.28501465079929994 30 1472 21 1544 22 1502
4991 1.8067564233073377 -7.835271285672353 20.516352142670076 151 170 110 0.37623061998467683 31 1452 32 1420 21 1542 14 2568 19 2494 15 1470
4990 -10.80351979725366 -6.9849805300928027 21.526125951263055 48 62 10 0.22356486804989406 1 1397 21 1524 28 1420
4989 2.8977502956940127 -9.466260279905315 22.793931706011971 63 82 34 0.32788247077685556 30 2522 21 1513 28 58
4988 -12.071149920671175 -7.396188325411301 21.763143791277116 36 51 3 0.15413464671172408 1 1349 30 1565 21 1494
4987 10.796009518520014 -10.371514410293624 21.485837321778114 150 168 108 0.15646451356932115 11 2552 21 1491 14 3368 22 2571
4986 3.1286730725860252 -10.246136620670503 22.625133598243739 38 43 9 0.095709080530057541 13 1391 21 1485 11 2530
4985 1.2277445569111278 -10.478976066170876 23.52349656411068 27 34 2 0.30097854489883047 30 1410 21 1484 6 1394
4984 -8.0833127314006674 -8.5477261740904584 22.167920071311841 34 31 12 0.44735839338467248 12 1391 21 1475 30 1483 32 2543 22 2550
4983 7.6468547062435519 5.7887721500113498 13.698665720807583 125 148 64 0.36217848788897117 23 1047 33 1315 21 1425
4982 -5.6046631866613961 6.4615035331112676 12.691009446631789 92 102 13 0.30292279461779881 23 1140 21 1404 28 1248 20 1007 27 1357
4981 -2.5743522269186716 6.1529012226807591 12.923761607145961 62 65 4 0.65604982878014795 23 2226 21 1380 28 1254 22 2490 29 2611
4980 2.6884624474321361 5.3021083913991713 13.230084279309128 117 118 10 0.36688233205891435 31 2462 33 2448 21 1345 6 2404 28 1215 20 962 5 3231
4979 2.2779872366361662 5.2787681592017197 13.088284558225016 161 155 7 0.42740277642011215 12 2421 31 1361 33 2465 21 1343 32 2485 28 1212 22 2466 29 2558 24 2402 19 3238 34 3047 35 3204 2 2383 3 2359
4978 -1.0709297665085877 5.5424378409289172 12.859086810039763 117 136 29 0.36964253321234741 1 1281 21 1340 20 958
4977 6.7597067263164421 5.0368959986905759 14.149644198307394 125 147 50 0.61988888576590062 1 2298 12 1286 31 1312 32 2399 33 2350 21 1331 20 2075 27 1100 22 1299
4976 -0.18282090190789682 5.2286140771979879 13.480789666187421 62 71 7 0.1706596316368843 1 1230 12 2389 23 1016 31 2437 32 2482 33 2459 21 1303 29 2536
4975 -1.7986250283787057 5.1660920075008283 13.151511063525573 118 129 18 0.30493794293562093 1 2285 12 2416 23 2138 21 1301 31 3264 33 3290 6 2436 28 1148 20 909
4974 -5.6271991851098146 5.5308736769612272 13.286952814109274 143 154 50 0.2996416122784254 1 2279 21 1294 23 2152 28 1139
4972 -0.55729005278150667 4.8351257224830384 13.288610921575531 67 81 1 0.17593374593826305 1 1203 21 1271 12 2368 31 2413 32 2469 33 2445 20 2031
4971 -3.3984978744318939 5.0755287487652465 13.271121850183796 63 76 13 0.36763872179984836 1 1199 12 2386 23 1007 31 1331 33 1394 21 1268 32 1392 28 1118 20 877
4970 7.2952775925828925 3.9194560069626019 13.0441405392666 80 86 14 0.34274112625513359 1 2236 21 1257 12 2285 23 914 30 2425 31 2332 32 1213 22 1226 29 1275 24 2465 19 2406
4969 1.6590787725241032 4.5013743590090796 13.8847170665339 211 210 66 0.55279539328294247 12 1224 21 1247 23 947
4968 7.5387695736244256 3.6515892264788921 13.262997243260731 130 143 35 0.065416815855784238 12 2265 21 1231 20 843
4967 7.3572696173573657 3.796138028020632 13.27230382357995 86 102 0 0.16836882358210656 23 1992 21 1230 28 1105 20 864
4966 7.3522087448234767 3.7953813666283756 13.278727871355452 86 102 0 0.26993789492585041 1 3059 12 3130 23 1991 30 3241 31 2330 32 2292 33 2256 21 1229 20 865 28 1106
4965 -0.66618612791972898 4.5297614503033659 13.73858326231626 204 212 137 0.71478170441539024 1 1161 23 944 32 1307 21 1211 12 1254 30 1323 31 1258 33 2392 30 2409 31 2369 20 820
4964 -1.0670206570366181 4.5280613592828889 13.654926385078436 158 171 67 0.22761590859728775 12 2319 23 942 21 1210 1 1159 30 1321 31 1255 32 1305 33 1303
4962 -6.7780970843510024 4.6508781898003626 13.467172621201332 143 162 96 0.30807455537015599 13 1194 21 1181 4 1240 26 1204
4961 5.3035153017632499 3.8648855138870402 15.679832188645499 164 178 91 0.26217525713913897 12 2213 23 1946 32 2265 21 1172 30 2340 33 2232
4959 -0.63770594836825667 3.7378437278951413 14.582001327269559 90 94 5 0.38986219538156058 1 2146 12 3102 33 3165 21 1129 6 1093 19 2199
4958 -5.1900700945541978 4.2101577820140159 14.386647280518849 115 119 19 0.18177565867366474 1 1074 23 885 30 1238 21 1122 12 1185 31 1188 32 2377 20 737
4957 2.0830862963580841 3.323861208692799 14.343623071034706 72 68 44 0.3123612381621535 32 2241 33 1128 21 1109 1 2982 12 3067 23 1915 30 3170 31 3135 20 748
4956 -0.69880439801374872 3.6143550823113766 14.812412209955438 65 82 1 0.30520658607576268 11 2403 13 2331 21 1105 28 988 20 746
4955 8.9292251373311728 2.3367910605983373 14.267636173440595 199 209 90 0.24100847254075169 31 2201 21 1095 23 1876 20 703
4954 9.3416974195767661 1.7303147661155893 14.227615852785451 57 63 1 0.6812372853638875 12 973 21 1039 32 964 28 2139 20 649
4952 2.1161541914599682 1.8120708284057649 15.349646895459847 40 49 3 0.14960348475028057 1 2015 30 2175 21 974 20 572
4951 -7.2107778158516211 2.8756547966452599 17.453452135339635 68 84 35 0.2301045691171392 1 917 21 960 31 1010
4950 -3.8402830674568 2.0543033332170197 15.813894002573139 57 59 11 0.57588833041357768 7 2237 9 3202 21 942 27 878
4949 4.7627536356655353 0.99152169205121765 15.302003539167789 73 73 34 0.3557451125939467 12 2028 30 2128 32 902 21 931 28 2031
4948 -5.127194931547149 2.0398534697787754 17.574076136128877 116 141 58 0.14960947209142975 30 1006 21 924 1 838 12 947 31 939
4945 -6.0179748716183568 1.6190286503440423 17.637525643851308 63 83 2 0.095694648996130713 33 982 21 877 6 937
4944 8.9976912737161143 0.15407951259912231 15.090937743773651 50 78 3 0.094303187791677054 12 788 23 538 31 781 32 805 33 724 21 869 20 508
4943 8.845218141882194 0.073662406182344944 15.581450459761298 185 195 135 0.30277695124040965 33 723 21 866 32 1970 14 2189
4942 1.1383951090949598 0.84108024939138859 15.33589555499934 155 139 184 0.32098148385160552 11 2148 18 778 21 845 4 712
4941 0.014206673044087218 0.92256742677014381 15.243786093102734 255 241 140 0.22246122303261229 9 1040 33 2056 21 844 31 855 1 773 23 609 24 781 34 639 35 735
4940 -3.0481678818221223 1.1689415106704626 15.644159462328993 60 56 19 0.64756291621058315 23 2665 31 2981 32 3032 33 3017 21 835 20 465
4939 9.8445005962413727 -0.94189005104342449 16.314611049959261 80 109 39 0.055626480063602629 11 893 23 426 21 759
4938 9.5901399382114789 -1.1501260667985984 16.632310889303945 47 49 4 0.53772957818631573 31 673 32 666 21 757 12 661 23 423 28 1916 20 382 22 2926 29 3030 24 3550
4937 8.2127499376771205 -0.75090184288676831 15.665312427786962 208 213 97 0.4041440733870999 1 1851 12 1911 30 2004 21 756
4936 -2.4661235045089809 0.33175139815111748 16.705083923655227 189 200 96 1.0699840090270041 8 924 21 740 10 1123
4935 5.7686999082358144 -0.96762423300257716 15.912177351264134 218 221 109 0.16559133529089901 30 2002 21 721 1 1831 12 1880 23 1566 31 1929 32 1904 33 1860 6 589 20 352
4934 -4.2700003634370791 -0.26120774071921199 20.272582269409106 27 34 7 0.22721193680590407 32 1975 21 700 1 671 12 741 23 1632 30 805 31 732 33 2922 20 1651
4933 -4.048888709757346 -0.18975632849453236 18.64473380366033 146 156 98 0.098367502544452479 11 803 21 699 13 745
4932 9.5442083158903621 -1.6251771623127671 16.389787458017889 169 193 88 0.18799155637233383 23 1524 32 1834 21 684 6 503 20 1612 27 480 22 1955 29 686 24 852 19 658
4931 -8.7986708059321188 -0.026400237213725544 16.910800562252071 184 191 135 0.26165418296187465 1 636 21 655 30 793 15 432
4930 -3.3309338787590206 -1.91274506698964 20.379702405787135 158 167 86 0.44970200023796164 33 1878 21 587 1 1745 12 1819 23 1505 30 636 31 1889 20 183 18 1600
4929 -8.3870305386821524 -1.3025486897101157 17.862526998353445 50 59 4 0.22628362265278615 1 549 21 539 30 665 6 694 28 485 20 1461 27 592
4928 -0.99693861611511458 -2.4484861982774824 17.498971302881586 196 202 117 0.078882093365149841 23 273 21 515 20 122
4927 8.1362907168182517 -3.9309251147741833 18.482106894387048 162 174 42 0.3133559439359791 23 2373 30 1775 21 499 1 2556 12 1679 31 2689 32 2718 33 2675 28 470 20 1419
4926 3.3092794782575923 -3.9075378908285945 20.314514436320362 152 164 99 0.20063483500229617 13 1782 21 481 11 1793 28 457 20 1411
4925 0.20667456758635444 -3.6405125491423296 20.091515821745578 131 147 59 0.12092036851095829 33 447 21 478 1 401 12 413 23 181 31 448 32 494 30 523 29 453 22 437
4924 -8.3658397127158306 -2.5514445333489522 19.103147350931149 45 55 2 0.22770473534736616 30 561 21 472 1 415 12 478 31 493 28 1667 20 28 24 1587
4923 6.8565528470515913 -4.1767660128568638 18.320596736989501 54 55 0 0.086407881785489138 1 341 30 438 31 356 32 375 21 462 12 352 23 83 33 291 20 1381
4922 -10.497128813010066 -2.6725488960922443 19.353729561229507 46 53 11 0.090708271873297955 1 413 30 534 21 435
4921 7.3623599839228397 -5.0216143756001088 19.027121490851776 188 201 96 0.12774843494987373 1 1550 21 427 12 266 23 16 30 1692 31 267 32 290 33 220 6 282
4920 -2.0384471413894598 -4.4707270090842606 19.67936146538025 80 96 33 0.087702812073824882 1 285 23 69 21 374 30 419 31 332
4919 6.334527241002319 -5.566864632891753 18.944142110968251 52 47 7 0.17169190841488391 30 1665 31 1607 21 352 1 186 12 193 32 1561 33 1542 6 1571
4918 5.482681334160346 -5.3729797096004512 18.958113778743968 66 61 21 0.24568749379368915 13 413 21 349 11 412 28 316
4917 -1.2402171295068347 -5.0904217745741285 19.995271344597274 60 62 19 0.2105846522941402 32 319 21 339 1 258 12 253 23 36 30 378 31 298 33 273 6 333 28 272 27 1647
4916 5.1407675475673553 -5.9349409812278617 19.30320927302737 234 226 154 0.1671666125994348 1 157 12 159 30 284 21 315 31 196 6 209
4915 1.4210823131624675 -6.3687124556343671 21.782185886265978 175 189 101 0.077759380385271415 1 180 13 313 21 307 32 197
4914 -8.6491578911981559 -5.0263726734182734 20.118966230474353 40 45 5 0.19272232059443589 31 1643 21 260 12 1583 23 1261 28 1535
4913 10.770334374773039 -7.7271296377268373 20.192452437852992 202 206 109 0.21018628482808074 12 48 31 75 21 254 30 179 32 42
4912 6.6047623863502567 -7.2420324270748848 20.840409807175043 39 41 10 0.16778199200886559 30 234 21 248 1 1416 12 105 31 1526 33 48 28 1554
4910 -1.7473972119009327 -6.5206513106050341 20.638929100229532 29 33 4 0.24770886162377229 30 1612 33 2616 21 242 1 2438 12 2544 31 2574 32 2619
4909 -4.4607752776124396 -5.5734027191767535 19.634011986368915 72 72 20 0.33146755660554639 1 1487 30 1651 21 235 12 1558 31 1590 32 2658 33 2636 6 2685 8 3473 28 157 22 212 29 217 24 183
4908 -7.5807796570083541 -5.8091790039918401 20.768100184239941 99 118 57 0.22746527598446159 8 354 21 231 7 334 28 156 5 1696
4907 9.8710059888434234 -7.8644528054423137 20.238419205252093 49 52 31 0.47333622522366992 11 1564 21 226 28 183 1 1347 12 46 31 1424 30 1527 32 1428 27 1490 7 2515 10 1606 8 2614 9 2590
4905 3.9741391319884953 -7.4379275272657823 20.853735572703712 50 70 2 0.10911922522153363 33 19 21 219 12 102 31 100
4904 1.0834514853404436 -8.0291886299706476 22.65094520028779 85 108 50 0.17770702951919487 1 1378 30 1547 21 211 6 164 7 1475 9 1567 10 1715 28 130
4903 -0.44336578816464634 -7.30907192012788 20.994097675641516 35 43 7 0.19361590394594833 1 1376 12 1460 30 1586 31 1478 32 1488 21 208
4902 -4.9055411384853507 -6.6758516848341367 20.943729325747189 38 40 18 0.16829518806744126 11 213 21 199 13 193
4901 5.9130244012176147 -8.7772790877058764 22.413292222238482 39 51 7 0.5762961217898751 11 1534 21 182 13 2601 6 1443 28 140 22 152 29 126 14 186
4900 2.720369810017901 -7.6625579931028955 20.47640450677072 219 229 117 0.18016551699472036 7 1449 8 1521 9 1545 21 181 10 1651 28 96
4899 -3.4029077194838755 -7.2797004914769046 20.894385985919659 46 55 5 0.22144031681222551 1 1368 21 174 29 107
4898 12.822320681305706 -9.8987173300756925 22.136372623700929 56 70 10 0.18904953604302002 11 203 21 160 22 117
4897 7.260034154151918 -9.4844090913004475 22.246620718297233 100 111 77 0.20159061472681891 13 1475 21 157 6 48
4896 -2.5913778398808671 -7.7108043137608462 20.842581223159524 43 54 11 0.12608817842041167 7 170 21 154 28 51
4895 -8.4840538355613813 -6.8253605716176793 20.758624599418088 213 222 157 0.070423565904416646 11 144 13 124 21 142
4894 6.1919298539628596 -9.0519794448653172 21.147338150227792 152 169 101 0.08214918921295826 13 181 21 128 28 63
4892 3.2718627126125295 -9.9772794197660222 23.064635163763079 22 31 4 0.25646605153563534 7 1367 8 1444 21 122 9 1467 10 1571 25 1359
4891 -3.156445242220256 -8.1493677288427939 21.25034463382249 60 75 7 0.33085250267153299 17 1417 21 115 6 119 9 174 10 334 27 42 22 69
4890 -10.852366786866279 -7.3620572351982041 21.659672131778809 57 77 13 0.085295871182040836 1 1350 30 211 21 96
4889 -11.007750497264764 -7.3997968054207774 21.457717803865595 44 48 23 0.23306038750670299 30 210 21 95 26 168
4888 -4.9070978997942003 -9.6095595850583795 22.344789943415989 36 42 8 0.29430121325112035 11 36 21 30 13 9
4887 8.3171176373201252 -11.183983628711315 22.064952489586524 136 163 84 0.29800301585053107 11 1387 21 17 14 29
4886 -1.3959368368622276 -4.4728312736061078 19.473935051103819 55 61 14 0.90466915858399133 10 2945 33 1654 9 1768 8 1736 7 1695 16 1717 10 1901 11 434 7 1696 18 173 17 1683
4885 4.4442916115297351 0.75701338976018162 15.562057910671978 55 54 14 1.0727068087470895 7 2084 11 2152 13 2150 18 2864 18 2872 16 2153 9 959 17 937 21 904 20 500 14 2135 1 1927 12 2000 23 1701 32 2015 33 2014
4884 -3.1578237119895896 2.0565361840962493 15.761845995410162 53 55 9 0.6050723012593513 33 1016 11 3095 13 2139 16 2209 7 2241 18 1979 8 2320 9 3185 10 3895
4883 -8.768240790831646 -6.4661637939651602 20.853543654307117 200 203 134 0.15665170643244644 1 1429 7 1564 12 1506 30 1604 31 1539 11 1487 16 1533 8 1642 17 1523 21 163 28 75 22 125
4882 1.1407039518057285 0.99437831860542869 15.278265455828191 117 121 133 0.95514805706772188 11 4064 33 3624 8 4086 10 3783 1 3493 7 3654 13 3692 23 2651 18 3948 17 3662 16 4039 21 3617 6 3616 28 3559 20 2619 27 2943 27 3604 5 2952 24 3506 34 3410 26 2038 25 2956 25 2957
4881 -5.4499670294927602 1.1403350504254817 17.445973437078365 180 190 115 1.2007950088728598 9 1103 17 978 16 938 7 2140 18 1863 8 2247 9 2250
4880 3.2131945181055439 -9.971111001498917 23.430326347428256 61 75 27 0.14073456292611744 8 58 9 69 17 42 7 64 10 212 16 56 30 82 11 129 13 98 21 123 6 85 30 81
4879 5.9560901705581824 -1.9185867110228487 18.174054208737878 167 175 72 1.6348434349720824 18 4574 16 4654
4878 2.7416035259267373 -4.6897469784948331 17.63650972597987 0 0 0 3.9153521892673879 10 4708 17 4672
4877 -3.1764470731109342 -3.4627358052157438 19.434601514869563 40 46 12 1.639133320734212 9 4648 17 4664 16 4642 7 4606 8 4653 5 4637 27 4743 19 4724
4876 0.98885741556770301 4.3802693001407595 15.194444113084197 225 217 84 0.11065573791805498 8 4641 9 4636 16 4623
4875 -12.257358446740856 -7.7699050873015763 22.167552858616375 61 67 31 2.8793516401726147 1 4372 16 4574 21 4512
4874 -2.830439456455998 0.9302102129876908 15.600082400259426 235 234 142 0.50328264577309045 8 4491 10 4611 16 4542
4873 -7.8003519622400876 3.5551800007188872 14.534927975276084 157 170 81 0.29618389012111945 7 4332 16 4365 5 4180 26 4043 4 4123 25 4145
4872 -3.4484006491233465 2.6340721708849566 15.743652782625707 187 200 121 0.72400404400531726 7 4299 8 4368 17 4391 16 4340
4871 -1.6847135696179436 -0.38847943270985574 16.868187258522578 148 167 86 0.57905673226116861 9 4342 10 4367 16 4297
4870 -1.26029400951552 -0.84207215899916477 17.719646774443419 46 52 29 0.2348174869181287 7 4242 8 4313 9 4332 10 4357 16 4293
4869 4.2938293888565973 -3.2020485962132774 17.225289122966561 42 46 16 1.1078513813656232 9 4284 10 4317 16 4260 8 4436 7 4507
4868 6.3345952438099431 -5.6172878687866001 18.83534492029138 73 71 43 0.58384351305982074 8 3949 9 3950 17 4265 16 4239 7 3902 10 3522 18 4132 26 3890 4 3904
4867 -7.7282507433596743 -4.9893827731011582 19.234976017956939 200 199 91 0.65382615515219633 7 4193 8 4264 16 4226 6 3447 21 3422 28 3336
4865 -5.2406967198306127 -6.8361665882551215 20.872325055404193 72 64 28 0.19319655499655886 8 4249 9 4259 16 4204
4864 -5.238024156138712 -6.8217684550146735 20.830679449093093 72 64 28 0.21051425053024284 7 4182 8 4248 9 4258 16 4203
4863 -10.183549326129805 -6.8925721667391224 21.484357769883498 39 47 10 0.28721041988298202 7 4186 16 4199
4862 -1.2178769019791602 4.0207869297952961 14.307608831456227 162 176 65 0.27496154582583299 7 4151 8 4210 16 4170
4861 -7.0929308697955245 3.932802168155872 14.406102827284167 207 205 136 0.21517458581017121 1 3597 30 3767 16 4159 21 4059 6 4137 20 3400 27 4191
4860 -1.2870655653633927 2.0471447372110143 14.957479727211597 59 60 25 0.35380225019961914 7 4060 16 4078 8 4125 9 4133
4858 -1.0255679381160583 0.32862413140989977 15.788121658190027 185 192 67 0.72785951623486944 7 4013 16 4023 9 4350 10 4383
4857 -9.7846175395414843 -0.69650266313164488 17.211871850509947 59 78 12 0.81003789208356736 13 3545 16 3993 24 3364
4856 -7.0717146594399383 -1.0872960997358327 17.626125156109815 38 38 14 0.85130522875440207 30 3976 16 3987 23 4020 31 4255 6 4280 27 4080
4855 -9.0640589902469682 -1.1620503773635307 17.678898645203223 26 32 1 0.82561660504049805 1 3829 30 3968 16 3984 5 4339
4854 -10.739022112864061 -3.1900839438733786 19.7843233092063 33 37 6 0.32412579429276206 13 3468 16 3929 21 2755
4853 0.73023646684269405 4.6250570094281818 14.306460351534172 82 94 30 0.033806608769544499 8 3888 9 3861 16 3847
4852 1.4923777428103755 4.3781256661165209 14.356691933675943 65 86 21 0.3410887616127169 7 3281 16 3837 8 3320
