# 3D point list with one line of data per point:
#   POINT3D_ID, X, Y, Z, R, G, B, ERROR, TRACK[] as (IMAGE_ID, POINT2D_IDX)
# Number of points: 366, mean track length: 8.0474999999999994
153 -5.9511138136804078 4.6196053881239525 13.057609745801766 195 194 192 0.36352173169208002 23 77 32 85 12 124
553 -9.7198802064296874 -4.8189448478515313 20.675130117311607 59 145 166 0.75202419192629866 19 251 11 270 16 240 24 199
753 14.039534391056883 -7.2876767924517649 21.969254068161167 137 115 95 0.21753055064664384 12 143 9 190 29 65
356 1.8926112787514198 -4.8275675110432195 20.852589104567365 77 56 45 0.14228506804077654 4 20 7 18 11 112 15 89
756 3.3487703524442844 1.6514772123980566 10.410786318492971 93 102 107 1.0759851649938903 26 246 9 197
904 2.8938443157125113 -3.2822721475230145 19.929828023876013 0 0 0 0.88948080245284367 5 133 16 37
507 -6.8022129422362152 3.9444436746183271 14.713185601055741 185 186 188 0.43125477345175262 26 276 19 241 25 187 21 189 13 212
707 -5.411386018829071 -7.0784705859175654 19.515691114193185 79 136 150 0.54252060011648362 19 83 13 96 24 69
951 -1.7757867981777609 -3.7514985706988684 23.219629146558638 97 115 130 0.69115479349360442 4 85 29 149
154 0.92343771641128625 -5.1033970980380836 20.648138833908771 57 103 112 0.64582739042499904 4 122 32 102 2 78 31 100 3 93 19 144 11 106
554 2.498791453841354 -4.8907326667544186 20.992500556963925 43 98 113 1.1808690573562106 19 250 11 272 1 184 22 327 20 213 16 241 25 195 22 350 17 227 13 226 24 200 9 210 14 199 18 199 15 231 21 192 30 177 8 210 6 190 33 150 29 163
754 -9.6801886234758978 -0.49098107751894032 15.933456237464142 105 131 146 0.72348068289233147 17 212 9 194 18 189 15 222
357 0.92835078596180809 -3.844148133090342 20.713091485077417 57 41 39 0.22879633659059018 32 25 7 24 19 96 11 19 20 19 23 22 16 110 17 23 13 28 10 21 24 17 21 20
757 -16.676953186597267 2.2382001488944274 24.13723977670627 131 154 170 0.82384716932414226 16 269 9 219 20 312 15 250 21 217
360 -11.38384118459248 3.1501940004682072 17.062022702206193 196 205 210 0.26433696770202275 4 48 7 54 30 43 8 113 6 103
752 -9.0761299120318277 -4.6364693800645069 29.055111882313238 102 128 143 0.3989756820664811 1 188 9 162
355 -4.6755509240927591 -5.0178795634479245 13.560913523003959 0 0 0 0.25390488748603518 1 10 4 5
949 14.107382838308533 -9.4387950847605726 21.298392493858039 155 132 116 0.37831273563864221 7 0 29 108
152 -4.0628372272482833 4.4810777549334944 13.484718546571587 186 185 183 0.30365478365612814 23 72 32 81 31 80 12 60
552 -3.1592730005522069 2.5733562720093297 17.163830646692023 108 118 124 0.75578319080539436 1 222 2 191 12 213 32 184 11 250
945 -2.4211819817235689 3.4072254301713096 16.45445770144218 177 177 177 0.31953837188698908 4 47 15 76 21 64 29 52
148 -5.6478929225854797 3.9097190502226722 14.982209931650061 151 151 151 1.3482007095279489 23 59 27 126 32 69 2 117 31 134 11 135 22 171 20 136 16 175 17 126 9 99 14 108 18 150
548 -4.9784691494268802 5.3140554249543239 11.477371885429516 194 193 193 0.44339441922771633 12 245 27 264 11 241
748 1.6696140699371897 -3.8526347675911881 20.86794321560469 29 27 37 0.30600298839319029 22 220 9 89 11 20
351 -9.9084926380508591 -2.0843853488002382 17.904409794640749 132 153 162 1.2457726492112735 32 118 12 163 11 28 29 150
848 11.957433269190227 -10.49608314094988 28.063628096837267 162 166 168 0.72698548958774833 30 63 8 5
751 -4.8025167092272518 -3.5535924844028273 20.660890142459063 31 93 108 0.74028256503220857 12 159 13 227 9 161 22 262
354 -7.0052068354749419 -7.1636152058082549 19.910112029752458 66 132 147 0.45578735174056106 4 197 12 197 20 209
948 13.752301541950015 -0.78824459158319893 23.749829289546287 86 69 53 0.32638540952561573 25 22 27 172 29 85
151 -8.3237341713651585 4.3548012859213499 13.858913221727319 140 140 142 0.14754224533715765 27 66 32 78 31 74 12 59
551 8.5124857386153234 0.65975755774976286 17.000394370847236 64 60 54 0.92466153348182645 19 228 11 249 22 303 20 290 13 232 10 186 24 205 18 172 17 215 21 198
898 -1.8009693943973153 -3.568055280091722 9.3937175098581651 0 0 0 2.727514460491137 9 77 21 221
501 -11.700102369821947 -3.2430221154697767 22.162550076714947 201 206 210 1.6247093419986502 1 190 19 201 10 23 15 36
701 2.7064348793497097 -7.1658100489969101 20.150634410010159 50 107 121 1.156587270023693 12 251 19 222 22 325 20 259 27 240 25 170 17 238 31 280 26 319 24 162 14 196 14 217 18 222 15 198 21 175 30 174 29 196
944 3.2929223186721832 3.527279330562862 24.687033983954226 88 92 96 0.18893878018443383 30 41 29 48
547 8.8407055034966824 4.2603481383959796 13.850531263995665 176 163 157 0.1800592438215359 12 221 11 240 9 146
747 0.0056132684278795532 -4.0389058439335459 20.642852217974418 8 121 161 0.1005229842410803 22 215 31 104 9 84
350 -8.2765145729197851 -5.739992265565788 33.453368985430153 41 90 106 0.46870020315859828 2 91 25 77
750 8.3604551398932578 -0.67398893078386035 16.456952461160519 55 82 81 0.52986821055690325 10 40 20 123 23 37 9 129 29 30
353 -0.52437315181991695 -1.8187216295774562 5.0851681957531802 63 120 132 0.22956195724580894 2 206 12 196
947 1.0152689140923541 -7.7215414343199544 21.264470487475187 0 0 0 0.10114978654131745 5 52 22 0
150 -4.0034645739735373 4.0056525750081411 14.774863212962282 180 179 176 0.167384415247083 4 56 32 71 31 64 7 57 8 55
897 -8.5214801721577373 2.6376515277933881 16.820519059546839 96 109 118 0.39058215268102975 3 216 5 192 32 244
500 7.1072029949084161 -6.800012113824093 20.417156245304735 28 139 158 0.038000647043221286 3 91 24 123
700 7.3388304684711105 -1.5020938414971257 16.116755946917042 60 125 139 1.8624817039170156 1 117 12 29 26 35 19 28 11 184 22 275 20 233 25 19 25 146 17 38 27 109 31 38 20 39 13 122 10 36 24 33 24 149 9 25 14 167 18 89 15 105 21 34 21 35 8 28 6 84 28 70 28 114 33 115
920 7.0934523894789647 -6.064313081568895 20.726330467844257 23 119 143 0.5619732163825778 30 13 33 17 29 11
723 8.3454788144115906 -1.8770408458200465 15.962959937435995 61 85 95 0.29950081368736037 13 204 16 207 20 231 10 163 24 179 14 168 15 187
873 8.6153989459107336 -2.6989196853146318 15.844189880791166 159 139 119 1.2050989846999638 3 171 6 79 32 202
476 -2.4022751081505653 3.4627398476963456 16.244439951482683 157 156 154 0.49100727272890526 27 52 19 53 22 165 20 60 16 70 10 52 24 109 14 103 18 106 15 156
676 8.5230188449929365 -2.7175949093497747 16.013374912075545 63 91 92 0.90105110696721735 2 143 17 33 4 140 5 98 33 128
776 5.7375036645517454 -3.7398621818442903 21.561706265501666 33 85 102 0.14217140335162592 4 139 14 165
919 19.2848950578807 -50.920881634271545 139.34634592545953 72 119 135 0.65194570040496314 15 5 33 8
522 7.1929765416478766 -1.8943282132897683 16.609260648552446 43 126 146 0.39694095931767603 19 106 11 33 13 121 18 137
722 -12.056675331488233 -2.6460521281770579 21.428771738106221 133 155 166 1.1939144184534976 13 228 16 202 20 226 10 161 9 125 18 136 15 184 21 159
872 0.92988139490527466 -4.2187022665441081 20.706283945406255 60 37 63 0.3801667418353587 16 109 6 78 14 16 22 18
475 -7.0564761362512449 3.9927471209933567 14.91376545021183 191 191 193 1.405791972066327 4 60 32 66 2 58 1 68 7 154 3 60 26 124 32 136 2 59 12 48 7 67 3 125 20 134 16 134 25 46 17 122 13 175 10 99 24 52 14 106 9 133 18 108 15 162 21 144 8 62 8 121
675 -19.837546573606343 -20.557258415831058 120.00537545993238 49 78 91 2.4463271092526506 31 239 17 26
775 -0.17265076485565717 -7.9095633873638871 21.214891297458479 186 188 183 0.11041573415897921 26 216 14 155
378 -10.069427200002044 3.4695893625903378 16.085642345534353 160 165 169 0.3085524050823239 4 193 7 262 30 143 8 203
908 -10.21748737155022 -3.5040892808093442 21.475016363774323 200 206 206 0.24010850979175646 19 17 28 62
511 9.4307992118364794 2.8225386312107048 17.798949940634902 155 144 140 0.38515773414402255 26 310 19 264 11 298 22 362 16 263 17 246 13 269 10 215 18 221
907 -3.844581730765964 5.5414107840843556 39.432242457948632 91 96 100 1.4498005005459385 26 48 28 44
510 -2.8871035736570518 -3.0463882337267787 19.54499981760581 107 123 136 0.99723410455362571 1 215 19 255 16 245 17 240 24 221 9 163 14 205 28 166
710 -3.0669431778874117 -7.3169328804046776 20.324087609610135 75 130 145 0.30374644019990915 26 215 13 185 14 152
896 -10.198314725415621 1.1183395147935451 17.285598295761915 112 126 138 1.5328332275667913 6 227 7 294 5 188
499 7.3178709577891281 -5.4851954523247679 14.992890689529915 86 134 146 0.80698187845272307 4 168 19 190 22 298 25 141 10 149 24 196 21 150 28 123
699 -6.9703579014819619 4.3972768800876763 13.697566630781344 186 186 186 0.49395680135733899 1 207 23 206 27 252 32 250 31 257 12 222 7 330 26 252 19 210 25 163 17 196 11 138 22 242 20 192 16 177 24 160 9 41
895 8.8501703144321393 -4.5634044585676374 15.278464118519127 176 157 145 1.4973910124290655 4 226 5 178 29 210
498 7.0115485737050429 -7.4558235278073983 20.697394683499475 39 97 111 0.51125882217773622 27 241 19 189 11 101 20 1 13 99 10 79 24 119 21 108
698 -9.4982849145019195 -1.7170030513751673 16.459874887055317 135 152 162 0.81976161738927866 27 214 11 31 17 157 1 162 26 31 19 163 20 120 24 92
894 12.572317287637082 2.0779497387350698 19.906475053686229 90 80 71 0.41050970265627612 3 208 7 291 8 245 5 164
697 -5.1260219271638485 -3.9200687990550964 21.338386347230269 52 111 127 1.5953952584238904 2 273 17 261 18 233 21 213
892 -9.9778777826179041 -0.23203891434141008 16.017810988435851 114 122 125 2.0468683962799443 7 130 5 141 29 87
495 -4.9859843662634376 4.8574775854322514 12.585530718835987 178 178 177 0.25829031540713365 12 185 27 193 19 184 22 288 20 201 9 104
695 0.77967759164617623 -4.6941874122264462 20.847552664624313 69 80 48 0.58484977012738837 12 287 23 273 17 256 13 279 9 229 15 247 21 222 8 268 28 185
795 9.0879479154613332 -5.6772162467660934 32.667875347537993 0 0 0 0.38458726378918828 1 112 2 24
891 5.4502512584374134 4.4731480651396609 13.958979291858064 155 146 139 0.21196236843089833 6 147 7 209 5 120
494 5.2878682517910658 4.3758005283120092 13.679086544355348 145 137 134 0.2834446447787865 12 121 27 136 19 183 20 206 25 101
694 7.8405465861888226 -8.240471988107128 21.698014775256578 174 171 164 0.56228862455727469 11 242 16 219 14 151 18 152 15 197 21 173 22 251
794 7.8386397231295089 2.9439801185517838 17.853492766705823 126 122 121 0.38633584540503385 12 214 25 186 18 197
397 6.0771079366494254 3.9423311809503212 14.915306925040111 160 156 153 0.42827055049169777 1 81 27 64 3 54 9 50
890 -4.9838057206670658 -3.4316332783825669 20.082419455854581 43 84 100 0.81696286792996597 32 200 5 99 33 154
493 -6.3056924250108741 4.6091856346490889 13.256769587766721 149 149 149 0.25582830639977111 31 227 19 179 17 201 10 102
693 5.3096026413457471 -8.8197419949463605 24.92089174751138 50 102 116 2.0940622162565323 1 210 11 289 24 235 20 309 8 255 28 149
793 -3.9737537380199788 2.5997250919649213 17.130487759349577 107 116 123 0.45481844941541727 26 197 32 212 18 174 30 169 4 189 28 146 29 174
396 11.636571424600117 2.3266221702252876 19.583976270614428 141 127 124 0.2787676861850254 2 98 3 45 26 120 6 43 29 93 31 118 33 76
889 13.949384736713331 -11.070593923307701 20.508089704801929 158 140 126 0.071329502191701408 6 7 5 49
492 -4.148534606624712 4.1711843431885782 14.356739929038957 180 179 176 0.23500939763597267 1 177 23 204 27 180 19 176 11 194 20 193 10 144 9 101
692 6.2041984051811552 4.1859127927408153 14.189441251419257 182 171 165 0.44092012102455053 1 230 17 236 13 255
792 4.0030453902939644 3.0630618749992045 16.897688993258726 161 157 154 0.011555592254714968 27 47 18 107
395 -0.17246367018600203 -3.440175036606417 20.633048975810851 35 46 48 0.29264396815955429 1 30 12 23 3 32 26 24 11 22 20 114 16 34 13 112 15 40 8 22 33 70
886 -11.757073417161308 1.5732197988615564 21.269541035619827 112 122 132 0.21036158974890706 7 257 8 193 6 172 5 167
489 3.4561852714181978 4.4806000662939862 13.478958997436179 180 172 169 0.39120700293373956 4 114 23 80 19 136 25 66
689 -7.8219284734382581 2.9812754852865968 17.531321597014724 42 47 50 0.19330481527794141 16 126 20 126 22 235 17 161 13 127 24 151 14 98 15 151 21 95
789 7.2728545520547758 -0.463250534012069 16.496168687609018 46 62 69 0.32350146319365763 16 51 18 37
392 -11.366274956917067 3.5140752195404201 17.617475607961918 175 180 184 2.1234271357497625 31 322 32 311 26 351 27 336 1 279
885 8.7165052217661714 -0.22081254366724243 16.606217305786224 65 53 38 2.2850545469066099 15 252 16 281 18 234 1 263 23 279 27 313 32 285 12 290 7 355 26 336 19 294 11 301 25 226 17 258 18 231 28 193 33 199
488 7.8129597937763355 4.1618785803306642 14.152201648098217 168 155 147 0.35490885320769888 1 91 12 53 19 133 22 106 20 147 9 58
688 7.2456480778033514 -2.6163255750383376 15.828623726560599 51 151 172 0.26597633001134369 20 176 31 110 17 155 14 88 18 135
788 8.4868845301904194 -2.9843897234996115 15.634183144796566 146 125 106 0.047924681042959383 22 154 18 23
391 -1.9001347151056271 3.4435953887085868 15.971982579983299 166 164 165 0.66317323665799377 23 290 7 377 27 324 26 340 19 304 11 316 22 385 20 325 16 290 25 234 17 269 13 293 10 236 24 260 9 254 14 246 8 292 6 265 5 222
884 -11.300033925531766 2.0007035601173864 20.156272052881704 103 118 126 0.088357490291685284 8 196 6 178 5 146
487 5.0836607549128239 3.7169851647442083 15.473260200219837 166 158 155 0.3935780095879689 1 70 12 47 23 124 19 125 11 196 22 244 20 199 16 178 25 91 17 167 13 179 10 146 29 104
687 8.3748156782347394 -2.4695599895422911 15.772327642952833 67 90 90 1.1809397609407679 16 160 22 270 17 106 14 134 15 144
787 2.0530503250512284 -4.4157599808721324 20.74957087737398 36 40 38 0.10535565974469634 10 17 18 20 29 18
390 -11.511113741923703 2.8297447583716417 17.846976396928127 181 194 200 0.38491156913868063 4 262 7 371 29 216
883 -9.6866699478601515 1.7221781838557497 16.537124939847757 120 146 162 1.4134882221181067 1 237 7 342 12 257 23 245 27 276 25 180 26 241 6 248 4 210 32 235 2 222 3 186 31 176 8 261 5 203 30 186 28 152 33 141 29 203
486 2.8485319159072038 3.554629468793737 15.979306880005471 158 148 147 0.40349851896482924 27 55 19 124 11 137 22 173 16 138 25 43 30 51 6 52
686 -9.8160693415981246 -3.0228250127345806 19.752123312609413 197 208 212 0.051077075919384207 16 32 17 102
786 8.4401875553408559 -4.8117192904763995 14.976504361984317 71 86 86 0.56557630711890217 10 6 24 125 18 9 11 103 15 15
389 6.4249282135532653 -6.6689830806198289 20.371266837135817 35 98 116 1.6623181228704453 32 295 7 367 16 287 11 317 20 326 22 386 13 294 10 237 24 258 9 250 14 237 21 233 30 235 8 283 28 195
881 -10.145480102518999 -0.77499050076146325 15.250255123436471 193 203 205 0.15040098755136014 7 374 8 290 6 263
484 9.3787977520912555 2.852425440232488 17.379424431253238 163 152 148 1.2300383035755962 1 126 19 117 22 241 20 195 16 213 17 120 24 192 18 58 20 141
684 -0.54482560541583769 3.3822239967067027 16.523959912065891 174 170 167 0.24973545500420552 22 76 17 65 24 58 14 55 15 77
878 -10.232857952535918 -6.395209660398236 20.197091814143434 185 201 201 1.3633843686998608 3 163 27 205 6 189
481 7.3877875216184981 -0.97045014704961008 16.289622869578412 65 111 127 0.47386890683574762 32 41 19 108 10 93 14 90 1 40 18 90
681 2.67609212443559 2.7950126961325412 17.896103928146456 44 45 47 0.14061499648376738 20 187 17 57 22 64
781 8.5523389475108331 -4.2469207986840729 14.724031191633227 150 128 105 1.5592421980426869 32 289 14 233 3 257 33 197
384 -8.5558560586076844 3.1949531647463281 17.059416733619173 158 161 166 0.35013453613215223 32 246 7 327 8 251 6 233
877 3.6155912763778599 4.5483780412002464 13.457545286039739 148 143 139 0.13018164970554541 2 164 6 152
480 -6.1110087860971509 4.9273184112441459 12.390465998994751 187 186 185 0.088441090940992909 12 131 19 71 13 81
680 2.689917262232203 2.7756872034064881 17.79644921096514 44 45 47 0.26582203232647184 20 186 17 56 21 136 1 174
876 -9.8808002181718138 2.737539043047601 17.230964263892854 158 176 185 0.18478065283112502 8 165 6 143 5 72
479 4.0357894834551047 4.3875524837341038 13.699683214159162 181 171 169 0.22542321491629252 23 83 19 69 11 148 22 185 20 88 13 146 9 54
679 -8.9030512493066603 2.7797481940472526 17.046320232140008 104 113 120 0.67084225706794509 27 119 17 48 33 146
779 3.5390448716633571 -7.1539085483601745 20.145816959776024 49 107 118 0.77003285050506687 11 268 27 289 14 197
382 -0.2502669765461592 5.0096651144182855 12.049666965507765 181 177 174 0.29165416884430218 12 244 27 261 7 311 26 258 22 321 9 186
875 -12.222590858123631 2.6446348792509609 18.383254181959284 191 200 203 0.26649375458992397 8 47 6 96 33 46
478 -4.3136252991996118 4.0757487592575572 14.639428053881623 184 183 181 0.20228212452974642 1 77 23 62 19 58 11 68 10 59 24 64 8 60
678 8.502764277044184 0.30527597851379523 16.94809279638843 60 55 51 1.674831205197866 2 96 17 44 4 34 18 94 26 113 25 24 15 61 21 44
778 8.340387188234649 -1.5626383223664249 16.082509028921738 56 87 91 0.52034964105714943 26 108 14 188 25 83
381 -11.991577316098706 2.0645153286093252 20.069067876261556 129 146 155 0.18371013553500903 4 209 7 299 8 232
874 -11.105494768958286 2.6589464696453478 19.270191175612034 105 118 127 0.93222381499157458 4 43 6 95 5 113
477 4.4499832211321682 3.4731190923498634 16.154118586722838 173 166 163 0.22010506975317304 1 66 19 55 11 69 22 85 20 70 16 79 25 44 13 77 10 61 9 42 18 109 30 47
677 -1.7671181784007377 -1.6276901971799231 16.129920285466731 129 138 145 0.44150119860076653 16 40 22 40 17 36 20 33 21 31
871 -9.8390188852757667 -7.6129390154716141 20.52761994389342 187 195 195 0.51843367574544386 23 1 25 102 6 67
474 -10.352958918565294 2.915267598903498 16.846340653971513 174 178 181 1.6101890756702784 23 288 25 230 30 242 28 206 22 384
774 7.0295826570723934 -6.5250880179597601 19.981668294558879 38 139 158 3.1663341044709208 19 192 14 114
812 -10.161009112712676 -4.3260134237980141 25.407546744277454 0 0 0 0.35200359127527797 13 191 26 223
796 8.5862512168148264 -0.71821463401381513 16.486374981813761 77 66 56 1.8702447327138201 25 178 18 170 31 243 11 219 22 301 16 224 20 300 27 216 17 213 19 258 13 246 10 165 24 204 9 195 14 207 15 204 21 182 30 184 8 184 6 163 5 65 7 250 3 151
790 -4.8557111126278514 3.1207233468634681 17.229331211836985 168 169 171 0.1562395437804871 1 60 18 51 8 41
785 -9.3652913245803315 -7.6913278439305204 20.775749918077413 174 190 190 0.023667979420040994 31 2 18 4
388 -11.637117428129637 2.4715528234810047 19.385789243122169 111 120 129 0.27406846199261747 2 261 7 358 8 273 6 249
783 -8.5258839328078153 3.1589309428469559 17.249990801235658 151 153 158 0.53133706268861158 1 171 12 170 23 166 26 199 19 171 22 233 17 163 10 133 14 172 11 223 20 239 16 227 18 176 15 152 15 205 21 133 21 164
386 -10.284616588540731 2.2230497367208781 17.953289372712693 98 111 117 0.35490450957777592 2 226 7 343 8 262 6 240 5 204
782 -8.4206060064945127 -0.89778624633668402 15.057195280117391 113 133 143 1.5015847957635617 10 233 17 263 13 289 14 240 18 241
773 2.1363233909966559 3.9858549061065811 26.917352549433282 0 0 0 0.39430558266661497 9 35 12 41
376 8.5448777311349922 -5.0163713364196871 14.839513260442004 181 161 144 1.4228514899912024 1 181 7 241 23 177 27 204 13 225 9 157 15 12 8 208 28 125
772 8.175293140452478 0.95093068407923909 16.990016288487372 69 114 124 0.18432459696526013 1 123 14 95
771 8.5466892561414447 0.2099612365574717 17.076589626611934 53 54 49 1.3995695898445006 11 128 23 41 14 94
374 3.6928791187666601 4.5915162910545027 13.578499742953703 157 152 148 0.44083214824502309 2 203 7 212 8 111 6 187
770 -2.7827055170315176 -2.1201883876671528 17.105884558720334 127 146 157 0.36814179905000577 16 159 22 227 14 86
373 -9.880125572782287 2.4218144466343303 16.911265363738508 161 180 190 0.89748576403362323 1 52 23 112 7 205 17 46 24 40 8 198
769 0.33666367461810659 -4.0875451329774721 20.730984408508014 163 67 150 0.079886982903433046 1 103 14 73 28 60
372 -9.8436195450381891 2.4138242823494132 16.847399744735643 161 180 190 0.79878719939762721 2 44 7 204 24 41 15 149
761 0.37269526297922428 -4.7556412919402007 20.763524041950497 87 115 178 0.16353792911944948 27 151 4 129 23 138 31 153 12 146 7 175 26 171 19 146 11 166 22 210 16 145 9 116 20 158 25 108 13 156 24 133 14 119 18 121 15 126 21 112 17 143 8 129 6 114 5 84 28 97 33 102 29 115
958 -9.8295112029960805 2.8617459941419292 17.070557925801474 169 178 182 0.61386663646193063 13 125 16 166 22 158 10 96 9 90 14 138 21 94 28 82 31 53 29 138 11 222 16 209
161 8.3029330372276853 1.6267248320149013 14.364183723786159 92 75 73 1.1411550633902419 32 123 32 234 16 233
561 7.2626346978003502 -0.60733882968410946 16.407345524065263 35 52 59 0.3361457633100764 1 43 22 52 16 48 9 29 15 107 21 92
760 7.9319207504448768 1.0036493108784961 17.073225805185036 64 106 118 1.5751400597990646 3 258 9 246 33 203
363 -0.94748133899406817 5.1485877761172913 11.707855326431453 188 183 179 0.34081421249524385 27 90 7 85 22 122 9 65
957 -9.0225328334141981 0.92530476842957554 18.581338703410559 102 116 123 2.1401366463409799 28 212 33 222 20 337 30 249 15 262 21 244 29 229
160 -14.182123541789394 1.2074727084877734 22.397586059467692 126 137 151 0.54402249571072181 1 47 27 38 32 122 2 99 31 114 30 36 28 75 33 75 29 38
560 2.5477387135414462 -3.3331593384896019 20.272871513162844 99 109 118 1.7815711214016285 26 27 22 31 20 118 13 38 10 29 14 23 21 29
759 7.8841218803612252 0.35021903464306736 16.745004182114105 55 102 118 0.43638853670373401 9 245 18 237
362 -3.9399063145729265 4.0857501545388679 14.770487778364078 162 161 160 0.089152504580345904 4 64 7 65
956 8.4492448660901474 -5.2575227693040523 14.820572345369509 76 95 95 1.5337307808304266 26 94 15 9 8 6 29 8 16 10 13 11 15 8
159 -0.41547179676244467 -3.353036513808048 20.737042310279801 99 115 128 1.6279574208850591 27 167 32 117 12 205 20 22 24 84 18 162 8 142 28 67 28 113
559 0.55405239429458775 -3.834413824586751 20.685247766963386 73 49 50 0.21909598862860971 7 22 22 26 20 17 16 28 13 25 6 26 33 27 29 20
749 -0.026715246727065014 -4.7592372672330852 20.783112070800705 66 181 167 0.26093418967107002 10 116 16 188 22 255 9 113 18 119 29 113
352 2.9781793203017699 4.1949282622186894 14.260151524175258 171 164 158 0.211915212018464 2 113 23 170 27 186 12 173 11 198 22 287 20 255 17 199 13 219 10 179 9 140
946 -2.4319981365810799 3.4106954808997183 16.485431372315485 177 177 177 0.28582452603707464 15 75 21 65 29 53
149 -4.0009696728903306 3.9877511204607519 14.716208088789534 180 179 176 0.092184376056271292 4 57 32 70 31 65
549 -0.64006315489851473 -7.8850627506354956 21.13851162685096 189 194 188 0.88650860221369787 31 97 11 243 22 129 26 164 20 210 9 154 14 154 29 142
746 3.1136972630739277 -7.0343427738147781 20.194943278251866 44 102 115 0.37221381580455604 1 98 9 79 29 7
349 2.4002226263998967 -7.2724689854063831 20.145479404515171 61 111 128 0.28879476401910681 31 98 12 142 3 84 26 166 11 159 22 205 20 150 16 98 10 113 27 202 24 118 14 112 25 69 21 107
745 2.709221765733584 -2.0862564525706859 5.7174867872216879 70 132 144 0.071583648633781777 10 112 9 78
744 8.9529297381924948 4.251885494412579 13.834365877702057 164 150 147 0.046115492032892544 11 155 9 68
347 -4.8500624007806241 4.7033995723877489 12.888386668036134 175 177 176 0.26992286631928475 27 139 32 148 12 128 7 230
742 7.3035105447631867 -1.1142514092076417 16.244082812636535 39 49 47 0.91511713814002049 22 51 9 27 15 106 14 33
345 -4.9098151987359868 4.563032137404722 13.311597546995124 140 142 141 0.21458931914177537 23 71 32 144 12 66
741 -9.1191044411313573 -0.83096971090726679 16.311141015232668 114 131 141 1.19754134682945 10 240 24 262 15 257 21 238
344 -4.4511566303387013 4.367418864012568 13.864805964751907 177 177 175 0.25319978786954789 23 68 27 67 31 79 12 54 7 73 19 62 11 74 16 83 17 74 13 78
740 -9.0128747496792041 -7.328258517477293 19.384677106796065 197 197 195 0.3982481993836231 11 286 22 344 13 258 24 214 14 215 15 228
343 -6.998550745421003 3.42461450401112 16.573581975641126 146 150 153 0.79902783055820359 2 45 4 50 12 43 7 146 17 61 10 46 16 130 22 161 20 183 24 99 9 130 14 141 21 165 8 105 6 100 28 86
739 6.1173763758416975 -3.6900543918661226 21.450309821858632 32 86 101 0.14466726025244037 7 191 24 202 9 126 32 114
342 -0.19817790111716424 -4.1971574552439872 20.664551623203369 37 50 53 0.2776627341129258 32 22 12 15 11 16 17 18 22 15 13 19 19 10 10 12 24 12 14 13 21 16 30 17 6 24 5 14
736 -1.7352456641707454 3.270521310232815 15.62264102594229 150 148 149 0.3351661675025886 11 134 20 189 24 154 15 157
734 7.3057643953236617 2.170433927755067 17.44230072586787 57 110 125 0.25044280145592163 11 56 13 65 16 67 20 57 24 105 22 72 15 70 21 61 30 38 28 41 33 42 29 42
733 3.2181636583529771 -2.5959404846892036 14.758618793836929 28 43 50 0.71805780628745008 11 180 16 115 24 87
732 7.1377224039885316 -4.0202974754840186 21.523959339258788 33 125 149 0.54604161451325939 12 19 26 22 24 83 14 22
730 -6.6652283383099782 4.0076657519288439 14.925917784683048 201 202 204 0.20826218751086689 17 69 24 54 14 57 15 79
729 -4.0996351730608227 4.5941334520966519 13.328254128057599 191 190 187 1.0018535027074129 11 76 22 93 17 135 10 104 23 172 27 231 32 227 31 228 12 224 7 271 20 197 16 239 17 203 9 47
728 9.4092189791536853 3.0240101241115429 16.918259109272391 146 138 135 2.193232113618953 20 334 27 334 10 243
727 -11.186710329910134 0.66270723486088479 17.674910510814968 153 175 187 0.58887265341173978 20 265 10 202 24 226 14 206 16 249 11 278
726 -12.792330002517659 1.4992653551187443 19.832646273900274 150 167 180 0.7077398213240027 11 221 16 225 20 266 10 185 22 277 24 227 14 189 9 169
725 3.819654674563485 2.5009006167223515 17.339043476232902 93 98 101 0.4376017489883321 23 198 31 179 10 169 24 186 18 145 21 169
724 -4.3907663125182328 3.0720568773856485 17.233948998339326 147 147 149 0.37180775745962574 32 215 10 168 15 189 8 199
721 -2.2343016193719616 3.5274496544159271 16.19367016058894 184 182 183 0.17371504903296522 20 129 22 167 10 143 24 157 14 145 15 159 21 146
720 -6.9159187741798993 -7.097159871831054 19.625920127769632 70 133 146 0.43192457179683724 13 150 19 82 10 110 18 67
718 4.7298586433239453 3.703886659417118 15.313988337309695 159 151 144 0.12294521312267866 13 79 22 89 10 70
717 -2.3154304545271942 -2.1810063663526909 16.48255023867317 126 140 149 0.87421616241115085 13 118 20 27 22 156 10 33 24 91 14 87 15 100
716 -0.91160428639244573 -3.6872034625595984 21.559833066506119 43 82 97 0.1215697988416824 2 84 10 26 6 129
715 1.5083417388260747 3.0978935437269399 17.46098052154564 141 140 140 1.152895640010466 4 243 27 279 23 248 1 255 32 263 32 280 2 262 31 249 12 260 3 237 26 307 19 275 11 281 19 261 22 335 22 360 20 292 25 214 13 249 20 270 16 232 10 207 24 230 24 243 9 200 14 210 18 205 18 219 15 226 15 243 21 209 30 211 30 219 28 170 33 189
712 -0.92357164894203969 -3.7058313642128025 19.832688098316474 43 99 116 0.78174568167373326 16 283 22 383 13 288 14 238 18 235 21 230
705 0.55949625693217564 -4.5603071016731693 20.648669869967854 47 39 54 0.22326735467088021 17 16 20 13 13 20 15 23
703 -8.790064881658278 -7.6752508960995218 21.089841063622103 83 145 160 0.15313198375847811 7 7 13 2
702 -0.14912846565070773 -7.8544389564207489 21.037949392009029 184 184 181 1.6485027642132459 11 244 17 204 1 95 23 3 19 187 16 0 25 3 9 155 14 182 18 180 5 153 1 232
691 -9.2685420050036882 -2.7063487100445052 18.86971910640067 135 158 174 0.47243267296510005 26 186 17 209
690 1.6508995706892846 4.161144964664822 14.395835347611014 169 159 156 0.15607307384800795 27 182 17 197 8 106
685 7.3092148208654759 3.0410425986180409 17.376024005290933 147 142 139 0.062574976208493963 22 80 17 67 15 117
683 -7.9805280540393797 3.662257990627626 15.761139662197754 180 180 182 0.27669784798656122 1 136 16 68 17 62 13 61 10 51 24 45 18 102 30 54 8 119
682 -9.1742617511660018 3.4224758803636699 16.517942937188611 163 164 168 0.10861875950887635 1 62 17 60 28 50
673 -13.21221798463492 2.506285186643801 19.03259815338523 123 134 143 0.42377157851712466 31 271 22 302 20 267 25 181 23 220 26 269 28 153
672 -6.0024040960148 4.6263119161104704 13.098107889276211 192 192 192 0.44498238583781813 12 123 26 129 23 76 25 61 32 228 7 277 19 180 11 197 22 245 16 181 17 202 13 177 10 147 9 103
671 8.8886904839554752 -0.74116205108103905 16.736956499908995 129 114 88 0.41339372014955672 12 274 27 293 25 224
669 -8.0254434130669736 -7.1876337907240089 20.376725808119634 57 130 144 0.2476289513503831 11 288 25 207 20 298
664 -8.9858511234644602 -1.9163900910149261 16.596498291782574 137 158 168 1.5914781122071358 16 204 19 226 22 269 23 216 17 210 13 203 12 233 18 185 21 124 28 68
661 6.3157948795911096 2.4692007785871617 17.465790138012281 85 91 94 0.39729081941728528 23 199 25 132 5 110 29 156
659 -14.415906659635898 1.8368835316588226 21.083314179843242 115 129 138 0.28034605537610396 20 41 26 114 25 86 13 51 10 95 24 37 14 93
658 2.0305341326509749 4.4017849661464554 13.801900321963149 144 139 136 0.33203624708916801 4 112 25 63 17 82 8 48
657 -7.3308759495713263 4.6165043884432935 12.420978353953448 154 155 157 0.16775591255116662 12 127 23 133 27 138 25 60
656 -7.6330985839533101 4.3642171993849432 13.86630367933774 145 146 148 0.21301635132481328 11 70 23 66 25 53 1 86 17 128 20 138 10 57
655 -6.7162695263795076 3.4534820897983964 16.311047515021556 140 144 146 0.25934669187679332 23 54 31 57 25 40 15 113
654 0.77852940991910236 1.4753760187053571 8.1594573539470829 91 95 98 2.6236730187858628 23 115 25 35
653 -5.5706721543688387 -3.6408982979607791 22.485270978619791 95 124 139 0.32844062114445333 3 174 25 10
650 6.5385200362912075 -7.3362521953182336 20.281201486247745 56 108 120 2.0250097202788919 1 11 3 90 20 152 22 130 16 186 27 203 31 196 24 195 14 4 6 70
649 -8.1442018439451278 1.0987781583032672 17.966501823903819 0 0 0 0.55222597413387975 3 274 19 315
648 -5.02807245009787 3.6635728028712786 15.902355590801942 175 176 178 0.93909790846409025 23 294 16 294
647 -9.1707098954720276 -6.4874290368368381 21.099034840164652 65 141 159 0.93663559177273037 20 330 27 330 16 292 17 271
646 2.6147851860763565 -2.5761058686257727 21.199506485344099 113 123 132 0.82758403726399155 7 372 23 286 16 289 6 261
645 7.2560244362810993 -6.4197239793398735 17.791371133832641 68 146 163 1.0529060925794733 3 245 20 297 16 257 10 218 24 215 24 234 14 216 15 229 21 203
644 -9.7678255966193195 -1.481243829668091 16.195711000530697 131 151 163 0.43215255796859087 12 99 20 178 10 129 24 145 21 126
643 4.9028669994297811 -3.7531494600808277 21.475901192414124 31 81 97 0.84947682257141999 3 170 26 298 16 246 31 108 25 142 17 208 10 200 14 186 18 202 8 214 6 195 5 182
642 7.2003069743328343 -3.360622610324572 15.320857641856742 46 151 170 0.97453999547527304 11 276 26 296 16 244 24 238
639 8.3451579474637665 -1.1881875780798057 16.240096832263113 62 91 93 0.7669651708881069 20 234 16 208 11 218 17 186 10 164 24 180 18 91 15 188
638 -0.010644085336346974 -3.6505361393886027 20.656098339383234 223 233 235 0.1474023656696512 1 153 16 197 25 122 17 182 10 159 24 177 14 164 18 164 21 157 28 134
637 -6.1653704962144653 4.5601090800946622 13.260297930757634 154 155 157 0.094430010754457894 23 132 16 180 25 94
636 -2.1999535626217117 3.5074662433746475 16.097728298028599 185 185 183 0.17556134189143582 20 128 16 174 15 160
635 8.4632976654474827 2.307198743029609 17.619320336874861 122 109 95 0.52274064280585453 1 59 16 171 24 51 10 53 13 72 14 148 18 96 21 99
634 5.826346577863541 2.5325269088290505 17.467722535143949 89 97 100 0.27667210125080538 12 106 19 115 16 169
633 7.3955014683739586 -1.2022638906468806 16.133032194558929 68 117 123 1.166055432373295 1 118 22 50 16 162 10 131
632 -4.1274227515548665 4.6199432843642043 13.737461752855808 156 156 156 0.28321765878709143 20 74 16 140 10 71
631 3.300309121439124 3.5809970642575113 15.994047970310582 136 133 128 0.17615723660905025 22 84 27 57 16 139 17 71 24 114 18 62
630 -10.221623329967191 -4.0353620532170069 21.230501800757082 195 207 203 1.3044319588333213 12 203 16 108 33 127
629 2.339423949338137 -2.9683493831520602 8.2433629461846234 69 129 140 0.54506489357445365 3 202 16 97
628 4.4427283871228314 3.4677022901118515 16.114824893877636 173 169 166 0.26171613185078091 1 67 19 56 16 80 25 45 18 110
627 5.7124454814483121 3.5536532489841202 22.048709405723944 41 42 44 0.51613919077526871 7 40 16 72
625 -7.9570997263265335 3.5986843317655484 15.919205029575314 152 157 160 0.22861211019819586 23 55 16 64 29 99
624 -7.1979687877370866 3.1459487701305568 19.423316790317681 104 112 115 1.2784660323115986 1 55 16 59
623 7.3713349658820517 -0.017195060700943943 16.77249224642949 58 121 130 0.32919656196367747 11 44 22 56 16 54 15 57
622 7.2954602514324867 -0.35406620234819475 16.317913132701392 64 116 126 0.32545263558916554 11 40 16 52 14 92 21 39
620 -1.8272417827295606 -1.6454236199482652 16.309441776477442 128 142 151 0.3905240516477182 19 26 22 41 16 41 20 34
618 -10.192969148748203 -4.8584598710864997 20.881574089457789 190 204 207 1.361120124685788 4 171 16 16
617 2.0386083956801073 -7.4042585378184933 20.404287573777516 79 126 137 0.072236296488104021 3 4 23 7 16 7
615 6.913302891424979 -7.6218774273788608 20.64569266089643 167 162 163 0.71323925086896378 19 188 26 219 11 160 22 131 20 0 32 7 26 2 19 84 16 2 17 0 13 6 24 70 14 64 15 7 21 72
614 -9.1707098954720276 -6.4874290368368381 21.099034840164652 60 135 154 0.93663559177273037 27 329 20 329 16 291 17 270
613 8.0542215810218067 2.3984429306435877 17.638942758033323 65 102 110 0.66009397084672472 19 230 20 271 10 192 9 201 14 213 18 193 15 207 21 201 29 171
612 8.109687103764303 -8.0404970522000134 21.812664662939667 91 143 155 0.44033758663368988 26 167 20 261 18 66
609 -8.2248151649797308 3.0059017179117005 17.594397310619314 45 52 55 0.31310852007771561 11 224 20 238 21 131 13 205
608 1.800676347948774 -3.1882310104104565 20.571658669613374 98 111 120 1.0936917135960826 12 232 20 227 23 239 13 202 18 212 28 167
607 -3.9443679336819493 4.450179316694685 13.739860482859264 150 149 150 0.32894951057249905 12 223 20 196 10 145
606 -10.191520773308987 -4.5138950104503666 20.961692266058261 191 207 204 1.3421934060185701 2 171 20 155 13 154
605 -0.24416383513161524 4.333902203384155 14.087177552930868 159 155 153 0.15074268531804713 11 142 20 142 16 182
604 0.8757911461735669 -4.7889115507857882 23.51664823505994 53 39 52 0.63990695835317035 19 94 20 111 25 76 17 101 13 27 14 74 21 85
603 -4.3475655975009992 4.9773501048960274 12.227646309230714 187 186 184 0.31838052433490754 19 74 20 82 13 86
602 8.005058079477795 2.522611360553237 17.780406058468003 69 100 103 0.33370808129927104 1 58 20 68 25 38
601 -9.7635482810498804 1.7693155659907664 16.714941764025514 146 165 179 1.4417076116134095 19 111 20 44 16 56 13 54 18 140 24 96 16 165 21 42
600 -15.640017075354095 1.714111281787273 21.459511045446074 135 149 162 0.31680249721834802 26 38 20 40 24 36
599 -2.3639481336526238 -2.0769259049844728 16.795323973458746 96 114 128 1.7751508777123779 11 32 20 31 13 170 16 205 10 130 24 148 9 21 14 89 14 132 15 186
598 0.17262492788547368 -4.5785002715596868 20.766995785950702 30 39 55 0.27666809691623623 26 15 32 19 20 12 16 21 10 14 18 17 29 16 33 20
597 8.3608460739879362 -0.92349778485603684 16.36285525012072 59 89 97 0.45865069162063188 22 231 16 163 17 111 11 185 10 132 24 181 18 92 14 136
596 9.4775027007801373 2.8985713561013018 17.64235359184978 162 151 147 1.5523288299037457 1 127 19 118 22 240 26 121 19 173 20 194 16 212 17 121 24 193 18 59 14 110 20 140
595 -0.99432623507930362 -3.1482075415480684 21.082899015220711 102 118 133 0.43833937698338732 7 354 22 368 16 267 8 270
594 -4.0591552035505769 -3.7725407645041718 21.804673879111167 39 100 118 0.6870568224094834 1 243 22 330 10 199 24 220 14 204 21 155 30 152 33 112
592 4.7552963348064106 4.3086049649003204 13.793104003797543 150 142 140 0.2412837651453085 11 257 22 317 9 180
591 5.2811309484112821 4.1633496219641764 13.880147493569948 148 140 137 0.73552261281796671 11 258 22 314 20 275 22 313 13 239 17 223
590 -4.7615316606455789 4.2775786198093488 14.012161651980074 152 152 152 0.48046068039835199 11 255 22 310 20 272 16 238 16 254 13 238 10 194 9 175
588 5.5412291304683547 2.5381025906001113 17.532282374505129 92 97 101 0.61891037901874246 1 167 11 190 22 281 15 153 21 139 18 99
587 7.0072261316989097 -5.3927273565711076 14.661120588880161 85 131 147 0.72568256441393764 11 207 27 146 22 252 24 121 25 70 14 156
586 5.0847047464831965 3.7167429403928796 15.457124215182045 166 157 154 0.3536902461615144 11 195 22 243 20 198 16 179 25 90 13 178 9 102
584 1.1766270511389239 2.8896398117483679 17.093008907025062 130 129 127 0.16629609454688996 11 188 22 237 20 185 16 168 10 140 24 185 15 194 21 168
582 -2.945905974167466 -2.1547147123476771 17.494725601364937 122 138 151 0.3807761815291566 11 182 22 226 20 179 16 158 13 169 10 91 24 147 9 19 14 85 18 166 15 145 21 127
581 -10.308445953508999 -3.1691809080573012 21.309842402324186 132 158 171 1.8625050027960222 3 176 23 153 22 222 16 222 17 153 13 193 10 24 24 20 14 18 15 179 30 157 28 111 4 142 33 73 25 143 29 131
580 4.9187363111495337 4.735426585385337 12.642698200131202 152 143 138 0.30836150890433334 26 142 22 202
579 0.11669754641549743 5.114156880814714 11.79267277280792 183 175 167 0.14469152441231795 27 92 22 200 9 107
578 -0.28786704480024899 5.1556571495273333 11.608358565695832 183 177 173 0.20751062569463774 27 144 22 198 9 72
577 7.7213047910637211 4.2948924540630369 13.766411951681787 184 174 172 0.1511984084555166 11 93 27 71 22 195
576 0.21946489981370948 4.948274620273029 12.062945704409016 191 183 180 0.11117594753571751 11 98 22 193 9 67
575 5.2215272158999237 4.4537088055914689 13.551818408400729 176 165 159 0.2416738249292513 19 137 22 192 20 100
574 3.1866166034646533 4.6375407251263132 13.015419439667404 181 176 172 0.41709414065425227 3 73 11 153 26 135 22 191 20 99 9 62
573 3.5725332054002363 4.4424441165375139 13.442231141990915 177 168 163 0.97615530554154439 31 72 22 184 20 85
572 8.6043680613459195 2.0848318259506917 17.490225005344996 123 107 95 0.78940333596493695 11 58 23 113 22 163 13 133 24 107 14 53 30 39
571 0.56024414130779887 -3.4610140160279386 20.722407484131679 36 41 45 0.1512554054057485 32 29 22 149 16 36 17 29
570 1.6572022128177204 -4.9818386801906787 20.906015304761123 29 37 40 0.3171476883443281 27 10 22 138 20 107 16 105 17 98 13 108 21 78
569 1.2298062411939428 -3.443847718447457 9.3603719330051511 184 186 183 0.56450556488457049 3 5 22 128
568 1.8687068155914737 4.1870960005734084 14.320884513980063 175 170 166 0.27839321719399857 23 69 26 65 22 97 1 89 10 72
566 -4.0976552661450247 4.5687790405665991 13.373371638854731 191 190 188 0.41013595744584003 11 75 22 92 16 86 17 134 10 105 9 46
565 -5.7736861488324509 4.3232686854108264 14.663806174339735 150 150 150 0.29473304131906813 11 71 22 82 16 81 10 58 24 63 14 60
564 -0.54883553307861233 3.3751704187705607 16.519094372944622 169 168 164 0.32238028019286719 31 55 22 77 17 64 24 57 30 46
558 0.55378127248069875 -3.8354449098060774 20.684237692074422 73 49 50 0.21967533655947313 7 23 22 25 20 18 16 29 13 26 10 20 6 27 33 26 29 19
557 6.9957328898199682 -4.6488525910814458 21.247125055803242 1 41 52 1.1437443899610742 11 113 23 16 22 14 20 112 15 25
556 -10.05097333879278 -6.0039691557896528 20.164131962562156 182 195 199 0.38006744500301698 19 88 22 10 13 13 11 163 24 6 18 10 15 17
546 8.8407055034966824 4.2603481383959796 13.850531263995665 176 163 157 0.1800592438215359 12 220 11 239 9 147
545 2.0771182803752146 4.4361643734710441 13.662251456485647 150 145 142 0.15967505516240491 12 180 11 235 13 222
544 0.5212911693953064 -1.2145447688918609 15.855878209514158 97 104 112 0.20791759827865539 12 206 11 217 21 161
543 -9.2709458626187917 -9.1889613185422583 25.529145539465727 70 132 150 1.0003633839570396 1 8 11 205 20 258
542 2.9777033009816098 4.1968627210701142 14.254187333340939 169 160 155 0.15781385057324687 27 187 11 199 17 200 13 220 10 180
541 2.6290359671588335 2.5337231958827 17.407733607723269 96 100 109 0.81074297672197015 12 168 11 187 14 142 18 175 15 191 30 188 33 79
540 7.1088885820226864 -2.3929622397187655 17.517350679790653 40 133 151 0.38616234944990824 19 204 23 188 11 183 15 146
537 7.6413704539476264 4.3099351128857819 13.487962928455797 150 139 135 0.20502250744178915 26 74 11 154 22 196
536 1.986556938202412 4.7628070033904377 12.716128954164391 146 140 137 0.10714288242334533 12 130 11 152 22 189 9 61
535 -2.7259306051983847 5.0793685140018185 11.881397428201012 183 179 178 0.27160062779947547 26 140 11 151 22 188 20 146 9 59
534 -4.2165840471955862 5.0254113056417014 12.136793066446669 164 160 159 0.22289712989463561 19 140 11 149 22 181 13 145 9 52
533 10.888298138275287 2.3706085890206507 19.928957828351034 128 110 98 1.1700200386683242 12 34 11 133 20 133 13 68 10 50 9 37
532 8.3692468424266 2.2427253032197045 17.620124339207074 64 80 74 1.1258204101573701 19 47 11 132 22 239 20 130 16 170 17 53 13 131 24 112 21 142 30 40 28 46
531 7.1603582259734093 -1.3167259340566642 16.082990514404941 90 91 94 0.37936993258131335 23 34 11 127 16 121 17 110 10 35 15 53
529 3.2652598270364472 -6.9151574428903153 20.32626910272522 62 121 137 0.86882991987529212 3 14 11 102 22 135 17 91 13 101 9 6 14 7 15 10
528 0.17569638612913882 5.0074655303714488 12.197775316916813 193 185 182 0.24623229470897479 27 88 11 97 22 194
527 3.7818205388675104 4.3701325425453827 13.88658331821367 155 145 143 0.21892981619194768 19 65 11 81 22 182 20 87 13 88
526 -3.6811644982890881 4.7284007393770597 12.901982111393625 182 180 181 0.20750814778006177 19 68 11 78 20 77 25 65 13 83
525 -7.5134034006557897 2.8722247126665099 17.734099075033335 100 107 113 0.24185516121773154 23 49 11 50
524 7.3617950747392245 -0.6882711066656485 16.39222250566975 73 123 132 0.16620089361399079 1 42 11 39 16 50
520 1.1053054599612242 -3.4533924928173176 20.741962277400173 42 36 35 0.1371723523502795 1 32 11 24 24 24
519 1.256769994732946 -4.5769362397999105 20.852017286337205 54 47 41 0.61139587619276825 23 15 26 17 11 15 17 99 23 96 27 97 12 149 14 72 8 14 29 118
518 -0.18022794389675353 -4.9599668374299641 20.771829216792991 21 53 59 0.14099088215203687 32 15 11 10 16 17 18 14
516 -11.49104346771546 -1.9449517120633062 18.678992084130542 204 208 209 3.33940163693542 27 170 19 286
515 -3.5059846065089872 2.6549457179398468 17.1603655231843 73 81 86 0.37227500342209219 4 154 32 183 2 104 31 182 3 156 19 113 7 138 27 120 18 143 8 161 28 120 33 81 29 135
512 1.5952041994478761 -4.4164533332781071 20.73076853223062 157 167 80 0.20929325417634059 1 242 12 273 23 257 19 271 11 292 22 351 13 261 24 237 14 219 18 211 21 205 6 221
506 6.9931622116282961 3.3552514500955728 16.423227465161258 151 143 141 0.33076416012496629 26 275 19 240 16 255 13 253 10 211
505 -3.0418726643619292 -3.632441981127239 20.980973394174505 38 89 106 0.59721950227158593 23 215 19 224 17 207 18 182 29 166
504 -4.5636664142417249 -3.6841534635054765 21.423066428840116 41 97 114 0.72520831307234079 26 225 19 223 33 131
503 5.4780401046632026 4.3119377887411474 13.900648841059947 167 158 156 0.38823442428913996 23 208 27 229 19 217 11 236 20 281 25 166 9 142
502 8.5829503366868014 0.27006073136357378 17.047708713203683 62 57 49 0.81554847072388004 1 195 19 205 16 226 13 231 11 248 18 171
496 -0.49769841030257528 -7.336590180582756 20.299251755370921 53 111 127 0.51706244534383072 1 96 19 186 18 71
490 3.5684601775252536 4.5102747481177561 13.382660228212236 150 140 139 0.36116838387175593 12 63 23 82 19 139 22 103 20 94 13 147
483 -8.8579827833096125 3.4723340788700381 16.37461242611035 153 156 159 0.48592816356572255 1 129 19 116 22 61 20 51 18 57
473 -0.9377735742052109 5.1284800562832844 11.992665969602298 178 172 169 0.26521412198140948 12 284 27 306 26 329 22 366
472 -9.7195082605230159 -4.508082032231898 26.639386955056075 39 97 117 1.6494563010724625 2 210 4 201 26 320 6 83 8 26
470 -5.7959121968107743 5.1861390840916384 11.540581783656624 192 192 190 0.38013555819185346 12 269 26 287 27 286
469 -5.7959121968107743 5.1861390840916384 11.540581783656624 192 192 190 0.38013555819185346 12 268 26 286 27 285
464 -7.9216173801268512 4.4895733971213456 13.230855983518074 180 180 180 0.1158496165562211 12 242 23 230 27 254 26 278 25 189
461 -15.350129292781908 1.3075162425553424 22.428466696036065 127 144 154 0.18061614589828523 23 191 26 238 25 150 28 140
460 8.2146759132921936 -0.17486598472296933 16.542883032750993 61 101 109 0.038247839507728476 12 208 26 237
458 -9.980146844653456 -0.99866361544969773 15.740531901806078 198 205 208 0.26256531489481538 1 216 23 189 27 215 26 232 25 147
457 -9.1271052213710231 -1.8030601738561989 16.413720435234396 126 148 161 0.69925258935128287 26 229 19 203 20 175 22 225 25 145 17 183 24 146 14 131
456 -0.72665695518204187 -3.5246979970124714 20.465108876885527 39 80 98 1.1023216984466682 12 231 26 227 19 199 20 224 17 180 24 175 18 161 15 181 30 154 8 21 5 59 28 132
455 -0.045716360470063139 -4.7564923845314695 20.74794929605147 58 180 161 0.14649083526083953 7 243 26 221 8 178 6 156 29 112
454 -5.9271289563881036 -7.2333205161501226 20.082815243523356 58 119 137 0.010451056720143976 31 194 26 214
453 -6.3534807662061095 5.2329616296229133 11.384231458496982 157 157 157 0.080577001535398568 12 229 26 209 27 237
394 1.3098841452846366 -3.8201436676459535 20.681970842872278 36 41 37 0.41625090456558833 23 23 3 25 26 21 19 14 11 119 20 21 16 30 14 21 15 94 8 17 28 64 23 99 29 74
380 2.8309614572485517 -3.7537951016042794 21.229981758805369 33 52 58 0.7804991178692543 2 242 7 288 26 297 17 230 8 213 6 194 5 158 33 171
346 -4.9035991058390467 4.5483663324305965 13.285399096560232 140 142 141 0.23578049745700677 32 143 12 67 7 228 27 134
341 1.2716048626784477 -4.9660311012210414 20.806379297303671 42 49 57 0.21277552657117091 4 19 12 13 7 14 19 8 20 106 10 10 14 9 8 11
340 -0.61319292851658169 -3.4209628141066997 9.2630034633338187 172 187 188 0.066695924932258288 31 6 12 7
339 -1.9030758506781462 -1.3852707510477007 3.7695868667186772 171 187 186 0.050584328846644266 2 6 12 3
337 7.4167692466685438 -3.7616131539777102 17.90822257289609 14 135 156 1.1130830517309933 1 278 23 292 27 331 31 319 12 310 26 350 19 307 17 272 18 243 30 243 28 207 29 225
336 -4.6978741028401858 -1.9670802869073716 16.446642669244525 111 127 138 0.94625872107482711 23 285 31 313 17 268 9 242 28 201
335 -9.1142834408440034 -4.0463444215056539 21.147947946786637 47 121 135 1.2178199248615953 1 270 23 281 27 318 31 312 12 304 26 342 19 297 11 314 22 382 20 318 16 279 25 232 17 262 13 284 10 230 24 257 9 252 14 236 18 232 15 253 21 229 30 236 28 198 33 214 29 223
334 -2.276500271834907 3.2830351267294655 16.042210304866963 160 159 157 1.0600680238804538 2 287 31 310 12 297 3 262
333 3.1234275252916257 4.5612999949648074 13.392985447950524 170 166 163 0.31665737659608523 27 312 31 308 12 295 19 296 11 310 22 380 20 316 9 233
332 -0.94900051259900542 3.133082698629281 17.200707293806584 153 153 153 0.52677597490333428 1 254 23 265 31 291 12 277 26 306 19 260 12 259 11 294 22 334 22 358 16 259 25 201 17 242 13 276 24 242 9 216 9 221 14 223 18 218 15 236 21 208 29 207
331 -12.612191972500367 2.4214261561224579 19.247948576009854 125 138 147 0.64685742480322272 1 248 23 263 27 296 31 286 25 210 26 322 30 222 28 179
330 -9.3115226464270275 -1.5782834246397517 16.180638807519639 120 142 155 1.2192149685893718 23 240 27 273 31 284 3 231 11 277 22 332 16 247 25 197 13 245 10 181 24 222 9 193 14 187 18 203 15 220 21 195 30 199 28 168
329 8.2681050724701759 -5.2581193144713723 14.897516362424492 62 101 113 0.83007783274740454 23 254 31 281 20 310 16 264 21 212
328 6.3076776366703484 3.0096897624120822 17.451478499062961 136 132 133 0.7348677386430571 27 281 31 274 23 249 12 262 3 236 19 278 11 283 16 262 17 234 6 226 5 190 33 179 29 193
