# 3D point list with one line of data per point:
#   POINT3D_ID, X, Y, Z, R, G, B, ERROR, TRACK[] as (IMAGE_ID, POINT2D_IDX)
# Number of points: 345, mean track length: 9.0017644464049411
2972 4.0968664906649837 -0.65394574924594517 10.313303469258271 118 111 103 0.3692998100367374 33 239 29 75
2175 -3.3293286934559112 -1.1854425115524572 11.868027838025238 68 62 38 1.0851616783510765 31 681 40 649 32 608 35 743 38 689 33 593 36 633
2971 4.6923714391183902 -0.71283280365933055 9.6115828746015026 191 178 162 0.68523314487980724 10 248 29 69
1374 -1.0562084818596988 0.75259874748718458 10.893259983024466 119 82 32 0.93365835883023041 6 521 7 508 13 543 41 612 9 583 10 542 16 557 45 482 4 490 46 401 2 416 48 380 12 358 17 118 17 591 45 256 46 263 14 549 15 460 31 518 10 543 8 449 18 381 18 529 23 446 23 447 34 405 47 286 47 412 47 413 5 403 3 432 11 458 11 459 44 401 20 418 20 419 30 281 19 181 19 538 21 460 21 461 42 578 42 579 40 560 32 531 32 556 37 675 35 676 40 596 38 309 38 652 37 123 33 538 36 601 39 600 22 537 22 538 24 501 24 502 26 566 26 567 28 714 27 547 29 516 29 517 25 446
2957 -1.2737457571411377 -1.540393150934442 11.970670063170399 63 49 32 0.063042633384937055 26 637 27 603 29 569
2956 -0.44469448664153249 0.26017359526503614 11.368448290567509 94 77 69 0.39121989712646238 26 616 27 573 29 541
1359 -3.5099787843198604 -0.049036481641840587 13.19377439553474 56 44 28 0.28687987991720598 16 464 15 406 42 521 40 423
2952 -1.2265862954329059 -1.1937581064169842 10.32695639219121 78 58 31 0.26148253603740063 26 541 27 524 29 498
2943 -1.107162621529743 0.01289377995947432 10.752356911358735 95 64 36 0.84908788616171993 26 326 28 512 27 411 29 393
1346 -0.84113687613498744 -0.42627824785053425 14.07125606796412 114 100 86 0.32657911027233394 12 93 16 105 48 106 15 204 44 105 19 287
2942 -1.0912977732282567 -0.099720365656832358 10.476139462352615 146 93 53 0.091728840844233772 26 498 27 410
1345 5.552107408865302 -1.1965251388980391 22.96515128241424 89 83 69 0.90249167216848025 31 104 15 198
2941 -1.1022943072788551 -0.11229041854771998 10.449301997425529 146 93 53 0.86961443422338769 26 497 28 395 27 409
2940 -3.7232715736737476 -0.69018469671480209 12.754663999974829 136 112 88 0.10949055983910554 26 413 28 501 27 398
2939 2.0176396567755406 -0.43062584196195447 10.212168196143175 83 54 20 0.34552872406305096 26 293 28 485 27 380
1342 3.2657496084409101 -1.3212238111256094 11.219748852077077 0 0 0 2.4706028237865647 13 64 17 58
2938 -0.6706302029275012 1.1645681007636692 9.6171086294949468 176 149 102 0.049115675877541239 26 341 27 327
1341 -1.0548540697260074 -1.2499933545558302 12.580849225505354 78 50 21 0.89397907941718779 4 198 6 60 16 70 17 196 45 74 46 214 15 167 44 169 1 65
2937 -3.6173380587332233 0.58774935443230825 10.7763136025573 110 63 33 0.18128936234107398 26 240 27 321 25 195
1340 -2.2637271125112375 -1.5412642819286371 11.134129452385764 141 124 97 1.301064213537884 2 199 4 188 15 159 34 75 22 44
2936 1.1819788710412644 -0.2270025352294627 8.8730627103830155 75 67 63 1.3139370682690716 14 147 28 490 27 292
1339 -3.2828584121924917 -1.6641844657643381 12.785541480832698 78 66 42 0.87231914780455921 48 173 15 158 8 74 44 159 6 208 33 47
2935 -1.7116051099953147 -1.0839423852513923 11.433844026731926 73 68 47 0.83209226595398988 24 301 28 362 27 287
1338 2.2827458825506262 -1.6288617719536975 10.27994817077159 103 70 32 0.70510715048632699 2 203 4 192 6 207 17 330 46 201 48 54 15 156 8 207 23 249 34 286 47 169 5 185 44 157 12 248 1 227
2934 -1.2667775216173176 -2.2472421674425647 11.978385970020289 142 122 97 0.637794597688077 24 35 27 275 29 25 28 36
1337 -3.0757493364850212 -2.159670935450805 9.4208294052810491 177 141 105 1.3095541943086657 14 20 17 13 15 148
2933 -0.27917691948245543 -2.4783693436976817 11.414833870079207 154 125 94 0.42128223579730101 26 360 27 270 25 278
1336 -0.98660676666054969 0.78436591860065252 10.913824760019892 122 96 63 0.53068382642689549 31 133 15 129 11 144
2932 -4.5264598356412273 0.42198117384047135 12.073074081498961 108 86 63 0.16423390124424117 26 239 27 243 29 241 25 115
1335 2.2929667021359599 0.53929362389830304 10.532019319280622 163 143 110 0.60574072701791271 12 122 15 128 8 174 26 123
2931 1.4535855980853101 -0.67031485018212067 12.681885989269528 34 30 26 0.2268238767847133 22 220 28 103 27 197 29 210
2930 -1.1858382599460935 -0.77316718739136647 10.378485583747711 114 61 27 0.9310113980717224 42 214 27 187 29 87 25 59
1333 0.58920129418951317 0.10308786292578677 11.735170038337442 59 52 35 1.1944820411284298 46 124 15 109 1 192 20 113
2133 1.977799458854852 -1.8968102727073357 9.941262701401504 162 135 115 0.99471987341178281 19 351 40 221 35 336 31 478 32 449 36 302
2929 4.529218192177888 -0.69776413977934115 9.9762190932663195 191 171 153 0.71093098120465059 26 59 28 360 27 180 25 292
2928 2.063266349909064 -1.1801196393562638 10.229988136576269 43 28 7 0.18438957918098897 26 179 27 175 29 189
1331 0.22295177285401932 -0.082641251224542273 0.17851972929000234 68 53 30 0.0085712624094529399 14 242 15 72
2927 2.3797085381280474 -1.1883036571528363 10.758069432477022 92 67 37 0.18480774076335291 26 180 27 174 29 188
1330 3.6053378754715264 -1.2327651322265056 10.310618687132212 104 98 68 1.122429255647662 41 77 15 67 23 78 44 59 30 92
2926 -1.6415556923951975 -2.2902195684939564 12.958829758485356 113 95 83 1.4127569241546485 26 35 27 165 29 35
2925 -3.651053988447424 -1.8918821904247036 10.108096769333548 101 71 46 0.65379582618635024 26 25 27 164 29 178 28 344
1328 -1.2656112119193959 -0.61703053285486809 5.8591243983445151 52 47 17 2.2219539235252106 6 54 15 60
2924 2.2293916310881454 -2.3878697532037805 10.812076208700361 101 70 32 0.11660657204423241 26 161 27 151 29 13
1327 -2.508100732653753 -1.3852088141983927 10.514713844894121 78 65 49 1.1653357248150815 7 71 41 52 15 47 10 203 44 43 30 47
2923 -3.596130320564054 0.97270347327941764 10.860703116036557 162 130 87 0.24565884296427282 42 269 27 136 43 281 25 128
1326 0.067924273326589998 -1.4402100196678529 8.7629542259560971 112 95 73 2.0136353624857213 12 28 15 40 47 53 2 193
2922 2.1821734093299776 0.25123301511872048 10.390103107105681 132 94 57 0.10483221493005304 24 241 27 106
1325 -3.504874857014189 -1.9979568220214023 12.080728925043399 145 117 94 1.7611334909349079 2 46 15 25 42 308 35 15
2921 -0.12161801521539668 -0.032132419234628284 11.163190947591655 128 122 99 0.65887838212718142 24 127 27 103
2920 -0.16118363185774659 -0.31388088310257806 11.150874061295227 127 120 106 1.5976406898281512 48 107 27 89 46 114
1323 -1.187098557829892 -2.5119607135535458 12.84500210897127 104 72 43 1.2541565927262595 16 30 17 176 15 16 8 41 23 153 47 154 3 53
2919 1.6902462582158337 -0.68638759198833965 12.787420698628015 28 19 17 0.16601898982598498 26 201 27 74 29 89
1322 -3.6236985717464636 -3.0649054286809632 11.744859293012356 172 152 109 0.88034482730767005 2 21 15 5 11 149 43 7 37 6 26 260 28 203 27 8
2916 -3.5350855266105246 -1.3580148720090517 10.333413056860579 146 122 86 1.1870730308710684 24 59 27 48 25 217
1319 4.5298014693062685 -0.31459503628936047 9.5199866257344006 167 123 86 0.61698779837595796 9 435 14 437 8 396 5 335
2915 1.4019708736499001 -1.4095741907702981 12.299197605549217 110 85 62 0.93318148415185775 21 56 28 64 27 42 25 38
1318 2.8075779749492784 -3.0892895568265164 12.011227157192948 79 74 54 1.778448065177912 10 302 41 188 14 201 48 152 8 32 18 315
2118 -1.1598230134575278 -1.5288348975801664 10.171270077652071 152 100 69 1.1776411394572028 30 220 40 56 38 244 33 198
2913 5.2166511406296241 -2.0395454263745432 12.828543229882049 158 140 126 1.3667645587364525 5 55 24 49 27 28 7 80 44 46
2912 -1.2042796229878889 -2.3742328151634413 12.461534977867275 54 43 23 0.48556996565173915 24 33 27 23
2911 -1.2238912074332766 -2.6845945506468767 11.394705584222633 127 84 43 0.21944057218201163 26 8 27 11 29 12
1314 4.57193068141338 0.63238030111814192 10.215692936103746 155 137 113 1.6073813726621289 13 483 9 445 10 431 41 479 6 454 7 510 16 475 4 343 4 425 2 418 17 364 14 387 6 138 31 162 2 254 7 339 48 234 15 226 10 278 8 178 8 407 23 219 47 357 5 235 3 169 44 132 44 315 20 362 21 403 42 459 40 183 32 287 36 162
2910 -2.6359703794898066 -2.7888605802732349 10.236114916974323 94 85 54 1.0204227959190404 42 164 27 6 29 5 25 131
1313 -3.3559606780487101 -0.56388075663751058 12.163114214097744 81 57 38 1.7795894419607365 4 463 46 378 6 497 7 548 41 523 2 449 14 528 13 595 41 596 9 561 10 462 15 443 8 478 6 571 18 414 18 573 23 374 5 376 11 437 44 342 44 387 19 446
2909 4.1238838895387087 -14.700358528108827 50.140888264521195 156 135 112 0.59525367805423612 33 13 27 2
1312 -3.8192072110283761 -2.3006537448885762 11.990127094002089 177 146 103 2.1871297824462856 6 551 13 634 9 545 16 593 45 511 4 509 2 496 48 472 12 455 17 562 14 397 7 367 13 331 16 336 45 285 4 292 46 191 2 176 48 254 12 240 17 317 12 316 17 405 15 254 8 282 8 456 18 317 23 236 23 410 4 563 34 276 34 459 45 562 47 244 47 368 47 426 5 301 3 185 3 438 11 255 44 371 1 220 1 364 20 17
2908 -2.4571010990789945 -2.7594192321468931 9.940514979417328 50 38 17 1.1779044348269787 34 19 44 5 27 1
1311 -3.6102918545608098 -2.9304234840420649 11.631353970910967 171 146 106 1.0303376877615285 6 176 7 15 13 2 10 301 46 30 2 171 14 324 6 401 7 457 9 462 10 377 7 363 45 279 12 313 15 141 15 310 23 140 34 456 3 33 11 419 44 137 1 216 1 268 20 151 30 7 42 293 43 171 32 197
2907 5.2636549812356384 -1.6445395205180255 12.007645690152845 62 55 45 0.58736840644045774 26 39 28 221 29 181
1310 -1.0634292066719193 -2.8524200323384448 11.970039577681884 134 102 74 1.9728164065113822 6 9 10 174 48 15 14 200 13 5 15 6 8 191 23 33 23 146 15 313 1 12
2906 -3.5786925357484747 -0.010541567163646423 10.609690672555708 132 89 46 0.85286959733849188 6 578 45 470 46 457 48 436 9 507 12 419 14 539 15 450 8 484 47 398 5 433 3 460 11 452 44 359 1 390 6 579 45 469 46 456 48 437 9 506 12 418 14 540 15 451 8 483 47 397 5 434 3 459 11 451 44 358 1 389 42 568 43 503 28 709 28 710
2905 3.4246337476710833 -1.3551435175626283 11.312868642329953 36 27 15 2.2196604535604663 7 734 26 671 28 834 27 651
1308 2.7931533235114769 -0.90777812457426021 9.5318336761892457 67 54 36 0.54320368730149649 4 593 46 569 14 589 34 524 1 432
2904 -2.3489471542482536 -2.7369189392389308 12.423127673179229 65 60 40 1.7033586222520229 2 625 6 701 23 523 47 556 28 831 5 521 48 599 7 730 27 647
1307 -3.1042631947256409 -0.31168299496166496 15.886547842002063 58 53 50 1.3229101251855537 17 577 14 567 2 459 16 538 46 519 12 421 45 472 48 428 6 432 23 432 47 400 47 452 5 386 1 383 21 450 42 565 43 456
2902 -3.8074096683741376 -0.082504388572151519 14.341812600233192 64 53 34 1.3309851282295422 26 667 28 826 27 644 29 605
1305 -4.3191795753139193 1.0410573454714174 10.701833326254736 180 157 115 0.24259287651280401 12 291 14 505 32 416 36 412
2901 -2.3147076097282779 -3.9610675315108743 11.906729749129552 197 168 128 0.76109826243646972 26 665 28 823 27 640 29 601
1304 -5.3813241039633644 0.4120825609052623 12.884023609875248 100 87 81 0.50584414453171522 45 406 14 492
2900 -1.0497003475008053 -0.024341295724322965 14.868609842101156 59 51 41 0.67414510266181471 24 644 26 664 28 822 25 515 29 600
2899 5.5198238703826243 -0.12032505514823862 10.726606037218668 113 70 31 0.83245347770839595 22 629 28 818 27 632
1302 -0.2508119766384328 -0.7627935493545468 12.605305292618601 175 155 119 0.41262585624304204 17 571 41 454 14 475
2898 3.7520529401234559 -0.047888772581118351 11.042831782107486 79 76 69 0.29457892408851782 26 660 28 817 27 634 29 597
1301 -2.6968675590406339 -0.7665993757297509 9.9667216455332817 59 50 19 1.5697906791577374 6 491 46 512 14 469 45 519 5 423 3 402 21 495
2897 -4.0268292588537653 -1.0407406481850237 13.323073273473364 167 136 92 0.51490667166507353 26 659 28 816 27 633 29 596
2100 -1.6536292371576837 -0.5853806478495146 11.820068333216199 130 105 80 0.56809345344021123 21 592 42 669 43 582
2896 -1.248184983839284 -1.0565575248063053 10.626851302324308 74 73 59 0.36131215988222209 26 650 28 814 27 629 29 591
1299 -0.99088174491600411 0.87375263601258735 10.844992171495752 170 149 114 1.292614982009306 12 123 16 289 14 445 8 359 18 533 46 475 34 345 1 207 30 531 19 399 40 451 37 447 38 449 33 382 26 238 27 242
2895 -3.4152107636739268 -0.97595547891520895 9.9725347087032254 45 38 17 0.60637946302777201 26 658 28 812 27 631 29 592
1298 4.4696400077706526 -0.74281307908299787 13.233574704131522 63 65 62 0.33091055858856833 16 460 17 434 45 395 14 426 12 340 41 536 46 308 23 326 34 312 47 336 44 238 1 297
2894 -0.71323306307293477 0.55006608965699133 10.817364876574551 157 133 95 0.34117927849604213 26 640 28 792 27 608 29 577
2893 2.326619211551662 -0.76240194565978536 10.098253226169618 139 104 78 0.29911851908830273 26 639 28 785 27 606
2892 2.3128044007712725 -1.4158256687733526 10.759475973219772 49 39 29 0.30376172731857448 26 609 28 784 27 602 29 568
2891 -1.574805137874363 -3.1442649910192837 11.669960808231098 67 62 39 0.29598347786354001 26 631 28 782 29 567 25 487
1294 -0.62013334898835804 1.0674680205870675 10.137076339086351 177 153 119 1.2605655928135995 2 349 45 342 48 326 14 388 12 295 46 405 17 370 23 344 30 534 40 374 37 363 35 376 35 469 38 387 33 327
2890 -3.896109079952724 1.1404491480519392 10.351908831374377 147 122 92 0.42469201507325255 24 617 26 629 28 779 27 599
2889 5.5159039990612806 -0.89255409721227419 10.1641576349795 200 179 158 0.75676636602825165 26 636 28 774 27 589 29 557
1292 -3.8151348944765151 -0.7793369656815371 12.839200837826921 117 74 37 1.221089157029928 7 471 14 342 48 351
2888 -3.7415124120597731 0.26995790843972312 10.698684129756581 82 65 48 0.76538331594927012 26 597 28 749 27 594 29 562 25 467
1291 4.8286017116977682 -1.6395019052818987 11.401935510933761 95 88 71 0.70056387814531706 2 206 9 408 14 335 8 213 4 63 26 273 27 279 29 261
2887 -3.3814025540006378 -0.20910310654580092 10.692181708872548 55 48 38 0.71638012987194211 26 615 28 747 27 572
1290 5.4854915269471212 -0.60818192180476793 15.06991559270708 110 112 111 1.6691792573020392 6 244 16 273 45 241 46 251 14 290 7 137 15 208 23 202 34 251 47 118 5 277 3 251 1 179 43 328
2886 5.0131604521076891 -3.0816157041922052 10.872861081645805 195 174 144 0.43479843450601935 26 576 28 731 27 511 26 527 29 489 29 525 25 453
1289 1.8823479683818487 -0.34059862950507219 12.839196339063923 54 48 51 0.1265540171531464 17 238 14 289 18 153 1 186
2885 -1.7056002461888484 -3.3168428432383688 11.211871351801118 191 161 127 1.683125770926428 22 581 28 730
1288 4.5905513578951069 -0.66438780958556432 12.520228141319647 118 119 123 1.7287919363160531 45 240 14 282 16 262 12 83 34 250 46 117 47 210 5 110 44 196
2884 1.12411435775705 2.1945749412084168 7.1709949068854266 248 228 179 0.19600462272409472 16 582 28 725 17 549
2883 -5.0869829919531488 1.0427522112776988 10.964372066399491 179 150 107 0.28557481788132649 24 512 28 722 27 559
2882 -1.1719050923932282 0.46987400682998359 10.947591794881514 152 125 100 0.27183379665348895 26 564 28 713 27 546 22 493
1285 -1.0147682598200416 -0.41212253721168157 13.59595163110461 114 92 75 0.2243801206905327 9 263 10 98 41 263 14 273 15 90 18 353 5 106 11 215 44 104
2085 4.9321194275584865 -3.1415272560966305 10.901188990809001 204 185 159 1.0348276709107456 21 481 42 390 43 416 22 349 24 442
2881 2.354882342637723 0.44120840950528445 10.488759118222896 154 133 107 0.22704456345465576 26 560 28 707 27 542 29 513
1284 0.4216594331004675 -0.76089300981561847 13.248281900125725 160 139 126 1.0694035863415852 10 235 17 215 14 259 2 106 6 325 15 74 9 109 8 235 3 356
2084 -3.1043076920219068 -0.46915240988110474 17.376014095622345 108 87 64 0.32445774874025429 14 270 42 515 43 397
2880 -1.1202742156589505 -0.64447109124725077 12.762559756247931 73 47 30 0.50692172735246344 26 551 28 695 27 468 29 454
1283 -3.7111914333789349 -0.66245868210369308 12.792072008499 145 121 94 0.72941570053595484 4 308 7 392 31 63 14 251 6 318 15 180 8 311 34 372 5 319 44 285 40 337
2879 -3.6346833554595563 -0.7835766713884954 10.284195027424422 129 76 39 0.5248682732337403 26 484 28 694 27 532 29 506 25 376 24 392
1282 -1.0426794500179002 -0.27875612962856838 3.3734189450133121 178 145 111 0.43588589622578638 17 47 14 245
2877 -0.97188509677672241 -2.3748266547358092 11.979147063989787 181 149 108 1.5552778622003893 26 533 28 667 25 412 24 530
1280 -1.877359229511729 -1.7560266890054885 12.43242603979871 140 123 87 0.98748345108653135 2 201 14 220 18 58
2876 2.1704428319044804 -2.0356637346672977 9.8260207335678942 146 91 50 0.1515860242425926 26 531 28 664 29 492
2875 -1.0976459121478848 0.54084144241139398 10.700277694100537 119 68 25 0.28366551508773707 22 403 28 629
2874 -1.1435816307549429 0.31632005103924354 10.67351916733419 111 68 34 0.58851378658953901 22 487 28 625 29 470
1277 -2.3870914565873305 0.45454238550364534 11.866385556986121 133 116 88 0.98849741042958084 13 277 14 159 15 217 34 263 3 155 5 131 30 273 22 149 29 140 25 114 26 235
2873 -1.1377131330211658 0.325509253630833 10.690034817916789 111 68 34 0.90067624374953648 24 426 28 624 29 469 22 486
1276 -2.4999592053995419 0.46418388832092239 11.847084092907712 131 114 98 0.42188324504548214 48 229 14 158 16 279 2 244 15 216 5 228 11 229 42 461 43 409
2076 0.27285790052683323 -0.46052318289743976 8.0611188097101074 103 97 74 0.67617567791092048 30 252 43 233
2872 2.2875363241619957 -0.72921546682973115 12.665520939505479 73 23 38 0.72773182685521487 18 510 28 593 27 467 29 505
1275 4.8841587838159413 -0.6086039676350895 13.576275521125504 86 90 93 1.8949430073336238 16 272 17 229 14 142 23 200 1 249
2857 4.9845992605090883 -2.4898032492006785 10.835288684846505 200 179 152 0.81123410930701223 24 444 26 452 28 454 27 514 25 408 29 420
2856 -3.2999181402080873 2.0164085376174401 8.1326217263239933 222 194 144 0.5828818671399576 7 203 28 445
1259 1.2749906630177492 1.5080885521850083 8.9580509941962561 187 159 124 1.386402605142286 31 381 12 144 17 137 6 159 7 188 16 154 2 162 20 241 19 335 35 315 37 297
2852 4.5802359944391116 -1.1661887859846218 9.8650789317216443 85 81 48 0.37143700856887979 26 175 28 354 27 281
1255 -3.5002932304775816 -1.1935173655957232 10.355800643683743 165 138 102 1.5008838973491443 13 55 41 345 10 320 45 299 17 331 6 565 7 601 41 588 16 602 45 376 45 515 46 428 2 506 48 411 31 409 9 479 46 294 12 330 17 421 14 230 15 163 8 423 18 71 18 494 23 308 34 426 47 435 5 370 3 346 11 44 11 470 44 381 1 232 1 369 20 177 20 329 30 422 19 561 30 618 32 221 30 323 38 40 38 344 39 323
2842 -3.2964916787897054 -0.41038912354844226 9.8664571344433138 84 74 74 1.7005920436063109 22 384 28 262
1245 4.4356175539613698 -1.4001604781002617 9.3688479622896601 110 76 37 1.8818309561891591 2 382 45 201 17 333 48 177 34 205 21 428
2840 -1.2167630194285113 -1.7623377502221709 12.388267355574726 154 132 101 0.15794823813733722 26 176 28 223 27 171 29 266
2839 -1.2326365367208203 -1.8074616743098584 12.739946422216358 130 114 76 0.27657138932045222 26 46 28 222 29 186 27 36
1242 -3.5815734040986573 0.92613465141502782 10.915821824212451 108 75 62 0.33349799814628145 7 154 17 253 4 142 8 272 5 147 10 142 42 268 43 277 22 334
2837 -3.5200395786187251 -2.6034533232643078 11.717193112496773 46 37 20 1.2000936741130146 26 267 28 210 27 153 29 14 25 207
1240 -0.61786032048659245 -0.69037758690913609 13.739112110540521 114 88 79 0.64509032582715464 9 250 17 214 13 88 14 256 15 83 8 126 18 124 23 95 1 83
2834 -4.1105533314816798 1.0285473245787389 10.89647878522417 193 160 119 0.17066358908214876 26 149 28 167 29 165
1237 2.1113012724095972 0.62801648944982869 10.721243105996404 145 119 97 0.24714986275992593 10 141 17 117 23 128 5 234 47 138 11 240
2833 -2.6554122728482845 0.41153237744697152 11.981177068937615 75 64 46 0.36519310545268507 26 130 28 150 27 116 29 239
1236 1.8455480108477065 -0.33042447210527176 13.195469253028399 98 86 70 0.20278748046694922 9 136 17 94 15 209 5 115
2036 -0.17250071751132365 -0.69803968307143549 13.831116431378774 89 73 53 0.71630404057819852 20 93 42 433
2832 2.266209017128975 0.16129846340022974 10.381622858996092 68 63 51 0.23136796722252334 43 258 28 131
2831 61.607588660433571 -8.4802343733362093 176.33613070913921 93 86 80 0.95873022840229305 9 123 28 109 27 204
1234 -1.4447958385734001 -0.57275711965019793 13.926640779278227 141 92 58 1.4012052139476097 7 123 10 240 17 81
2830 -1.0528573003894528 -0.75720566229262531 12.728230933998514 91 59 23 1.0453289220321109 24 94 28 100
2829 -1.147014865689322 -0.78478456276795772 12.684458143557167 127 88 56 0.3720455817097188 26 206 28 99 29 95
1232 2.6845930680444576 -1.1813784228792559 9.8969533108078576 95 89 59 0.70123467762371716 2 80 7 97 12 50 17 57 14 93 18 95 6 62 46 87 34 95 30 339
2828 -1.2203497456087307 -1.3205506099945823 13.372587280746464 86 77 58 1.2703808253893607 28 87 25 152 22 65
1231 -3.5882116429943651 -1.2147498061009527 10.346709664298858 110 72 23 1.1258784202167897 41 48 17 50 34 71 33 45 32 44
2827 -2.4186187099333152 -0.97156359719697483 9.7492721350096474 140 132 111 0.42646101363042993 24 206 28 86 27 56 25 151
2826 3.8755311282692624 -1.3374896678110406 9.4619418746867208 134 118 86 0.53005281959966855 24 53 28 52 27 35
1229 0.093869686984409242 -2.2178363545518724 11.918459918701103 100 83 63 1.3574583293648033 4 30 13 221 17 39 14 40 34 48 32 312
2825 -1.2667775216173149 -2.247242167442566 11.978385970020295 141 123 103 0.63779459768807922 24 34 28 37 27 276 29 26
1228 -3.6545055447407515 -1.9311771446049235 10.009647342820355 118 74 41 0.10235371795544396 13 16 17 23
2824 0.58951033213445547 -2.2525403378828366 11.260479090200372 146 125 87 0.49967409925361084 26 15 28 30 25 13
1227 4.5722370718780549 -3.4640635778477464 11.150117914936656 57 47 31 1.1856707784657916 31 204 17 4 19 27 36 13 39 20
2823 0.25559120609311603 -2.372498970674088 12.097120481389711 146 124 111 2.0013791399207128 26 268 28 28
1226 2.0826950951248904 -0.87602511684318818 6.3466120445525371 0 0 0 1.617665376809416 4 644 46 625 48 605
2822 -1.8341708058827568 -2.8229274695157223 10.015082167937926 0 0 0 0.16820434884576302 14 9 42 162
2820 -1.1886949255598711 -0.79764411902511945 10.351821716764778 125 71 27 1.1612419493625996 21 201 42 213 7 100 13 253 41 87 45 76 10 70 12 60 17 199 8 219 23 81 34 102 47 182 5 78 5 80 11 194 44 177 1 74 13 67 20 72 33 217 37 71 39 98 22 67 24 211 26 70 28 91 29 88 25 58
2819 -2.1155171949449145 0.37905902358359111 12.037363068853692 71 61 44 0.56506075337655381 6 250 46 257 6 517 7 565 9 512 45 330 13 474 4 486 46 392 2 410 48 307 48 375 14 439 15 412 8 447 18 449 34 395 47 343 5 393 3 371 11 409 44 363 1 305 20 414 19 387 21 397 42 456 43 466 32 483 22 491 24 550 26 429 24 425 27 493 29 472 25 399
2818 1.066356531067348 0.31329227390033204 11.582275623708288 83 74 59 0.73328215447779099 19 169 43 135 7 503 13 478 6 519 13 610 41 556 9 438 10 485 16 469 45 410 4 489 46 469 2 342 48 440 12 351 17 359 14 441 15 358 8 402 8 495 18 523 34 399 47 349 5 395 3 375 44 365 1 306 20 357 30 529 19 481 21 394 43 464 22 325 24 334 26 328 28 273 27 309 29 316 25 255
2817 -0.025856997979346243 0.32872539075814267 11.186301727530449 89 80 66 1.6990680445149287 22 531 24 547 26 505 6 364 41 282 9 382 45 113 4 257 2 129 13 139 10 124 48 226 14 300 8 160 18 278 3 264 44 123 42 453 28 516 27 412 29 398 25 437
1220 2.3218422175383933 -1.5253731257052145 10.375511684146769 91 64 36 0.53692249637197642 4 375 7 469 16 442 48 175 12 328 14 468 8 377 23 309 34 364 47 312
2815 -3.422196836561787 -0.95788502482714266 10.033109072644969 0 0 0 1.2430154665411586 22 622 24 640 25 512 26 657
2814 4.489366379072294 0.48732970471310855 10.620574133647327 166 141 119 0.76127067332559606 42 670 26 653
1217 2.0439914923343303 -0.81204962738330899 9.3416227480855536 141 87 42 1.3481150729907512 45 454 48 415 12 397 7 649 41 635 9 637 12 463 45 522 14 563 15 478 8 513 23 454 47 482 44 414 1 405
2813 2.5652755468854171 -0.86688963064967006 11.657796781963906 135 119 93 0.56484208237528688 24 622 26 638 28 786 27 604 29 571 25 490
1216 4.8912191464077068 -3.1391125393906942 10.91693570579967 151 141 125 0.51863655040489343 6 178 7 232 13 204 31 206 41 332 9 306 16 17 4 5 4 288 46 181 2 277 48 12 12 230 4 363 9 400 41 426 2 365 14 326 14 394 15 243 15 312 8 278 18 313 23 232 23 294 34 271 47 238 47 296 5 155 3 179 3 334 11 154 20 5 30 204 30 406 19 221 40 390 32 297 40 317 37 394 35 329 38 222 38 405 33 276 36 366 39 387 25 4 28 202
2812 -1.1632242818325105 -1.9742255914025626 11.09766382937182 175 143 104 0.94990043813732528 24 603 26 633
1215 4.5016358957011402 -1.7821507231359925 9.3577211826436333 98 70 42 1.1237996291899199 6 485 7 542 13 584 9 476 10 457 45 292 4 455 46 366 2 377 48 348 12 163 12 325 17 418 14 464 15 391 8 421 34 422 47 306 5 364 3 399 11 383 44 278 1 277 20 254 20 386 21 424 42 490 43 430 22 359 24 183 24 449 26 164 26 363 28 575 27 160 27 345 29 348 25 284
2811 -4.9272082758847731 0.56449144256031747 11.807853198132008 155 127 87 0.69784348924759909 45 578 26 624
2809 5.0686173431039387 0.18005279322181802 11.583640457016362 93 88 85 0.65898905819723352 21 567 22 584 26 613 29 560 25 481
2012 0.17872891998414897 -0.70509225758677507 14.02975439622278 60 52 29 0.24019573444092035 21 446 42 224 43 229
2808 4.4249087685295878 -0.73482804490029408 10.045806707503351 193 169 151 0.55526298286296383 42 632 43 552 26 610
2807 0.8238959632627475 -2.1365600164318188 9.8581935915261099 217 193 155 1.1240254822141298 22 606 24 600 26 606 28 735 27 565 29 527 25 474
2806 -3.5907177056540225 0.84692506836131065 10.848335362310957 114 68 33 0.60297288188442522 22 577 24 556 26 600 28 720 27 578 29 548
2009 4.1530473772024035 -0.91669366779954931 9.5007998262860749 67 58 19 0.45910974666270921 48 83 42 202 6 81
2805 -3.7181925744816082 -1.2830658671329775 11.100181945758729 76 40 14 1.1528708755321306 24 385 26 586 25 422
1208 -0.44340081457124425 1.2029361487482289 9.7908090011583742 163 137 96 0.52364107507471425 4 498 10 549 12 364 30 535 21 468 40 455 37 562 36 496
2804 0.59922748101262036 1.4130162377105375 9.2154869563588679 230 201 153 0.33044200897498532 24 510 26 572 28 635 27 556
1207 5.3268399156273771 0.76140258205127709 10.08977908599344 180 160 133 0.6460089731986981 4 431 31 536 12 362 17 455 15 426 18 539 5 353 44 266 20 363 19 408
2803 -4.2160369313318924 0.36659302171007802 12.447873496229255 88 71 53 0.6984828460023742 24 553 26 568 28 715 29 544 28 751 25 445
1206 5.7851364455964118 0.23976043601945532 10.951789497269777 111 104 96 0.64359442832298097 6 451 41 478 48 312 12 353 15 366 5 349 44 311 21 393
2802 -1.1887701293212907 0.46869966487528042 10.906257493048132 148 127 77 0.30140152166410178 24 493 26 565 28 712 27 545 29 515 25 442
1205 1.5524491801459668 0.3154734723616211 11.228854126152338 85 74 52 0.52195087797956263 9 439 12 352 22 395 24 331 26 420 28 136 27 310 29 317 25 256 25 331
2801 10.338062907626361 -4.321557125731375 111.3550570841509 65 50 41 1.0430895376683529 32 353 26 557
2800 3.6202489875044614 0.26171056836937717 11.633031905560182 75 66 59 0.229107666715022 24 544 26 553
1203 2.0499435865720708 -2.0150513213186478 10.540857790395611 149 124 92 0.50092081355636053 16 436 41 441 45 369 46 360 12 322 7 536 48 404 6 479 17 415 14 458 8 416 23 362 34 358 47 301 5 363 3 396 44 274 1 275
2799 -3.62767541111472 -1.1550926189996149 10.358253411459291 142 86 25 0.20661695067221833 24 455 26 548 25 370
1202 0.31749156384551058 -2.2838949160402082 11.626088602937735 139 117 76 0.59366411063348656 12 318 17 319 8 366 38 234
2797 -1.0177858197488197 1.4723215713332023 8.9973057606223836 179 148 100 0.37334454398699873 24 517 26 520 28 641
1200 4.3531523294750221 -0.62993694360471253 11.872210328526988 89 92 91 1.7889913206582422 7 310 16 260 41 257 12 267 17 345 23 327 12 195 41 110 1 238
2795 6.6472036187927088 0.20921417156223412 11.005652551198949 118 108 99 0.60989037921869571 44 312 26 491 17 363 29 452
1198 1.8911406835293552 -2.1480558970664352 9.9532899854519989 164 132 91 0.99941701204253419 2 285 4 365 7 372 16 342 41 197 46 285 48 258 12 236 6 408 45 364 9 212 4 175 17 21 14 213 15 251 8 285 23 239 34 38 34 352 16 33 47 246 5 246 5 303 3 337 44 144 1 219
2794 -0.20731717903865288 0.35194512991221694 11.553426837472029 93 76 50 0.13564449520846972 24 333 26 424 28 515
1197 5.2641568900588824 -2.7273082832154372 11.096016691300232 141 104 62 1.0020464368418738 2 368 6 289 7 371 16 340 41 431 46 286 48 253 12 234 15 249 13 330 18 320 23 241 34 275 3 275 44 141
2793 5.1359744798855811 -0.25062808297708328 12.327451927974577 50 33 26 0.4324210111664743 24 479 26 403 28 492 27 387 29 368 25 315
1996 -2.3917739265343387 -0.93730018430138595 9.0672268828428884 52 45 27 0.71050246615559809 4 68 42 62
2792 -3.1214537461484766 -0.91964802088091235 9.8599186441654787 89 82 53 0.35156800426722112 24 388 26 395 28 484
1195 2.2082750441771433 1.2719503343815024 9.2545717299249812 186 163 127 0.22234631888317086 7 178 12 225 18 191 31 167 23 137 20 140 33 167 39 194
1995 -3.5422262276125012 -1.1490204691089811 10.404623144019894 170 146 111 0.67824252882533043 11 45 42 60 13 56 38 41 32 222
2791 -3.1214537461484766 -0.91964802088091235 9.8599186441654787 89 82 53 0.35156800426722112 24 387 26 394 28 483
1194 -3.592453232449444 0.81970601471922488 10.843722450333122 113 72 31 0.32305025790106168 6 134 12 217 20 225
2790 1.9880038478969959 -0.6857068706338314 10.346857669714218 136 124 113 1.6221845336437384 24 465 26 392 27 458 28 689 29 281 29 502 28 364 25 423
1193 4.7910115566299414 0.3636686753229712 12.44583506009416 139 131 112 1.4760410454336519 4 342 12 215 47 228 44 261
1993 1.4832122965033201 -1.6954760411582412 12.657951523183382 119 97 76 2.819075701671065 20 52 42 39
2789 4.4409713288870538 -0.8185136815267231 9.6617535958790892 139 98 55 0.32984132224419932 42 500 43 436 26 380 29 353
1192 -3.9097134675480634 -0.51082383747508342 11.007859062769333 151 127 96 0.73252933208333715 41 89 45 84 46 98 12 186 47 187 44 181
1992 4.6798859574265084 -1.7220963782144991 11.240283162717885 111 100 86 0.11480114358566636 9 224 42 32
2788 2.2254215500472965 -1.6718250311012459 10.437338737020168 163 143 116 0.91871568442937568 24 295 26 371 27 520 28 676 25 366
1191 2.2193434622227688 -0.88219301848164522 10.062438177127762 136 90 42 0.92382016416457025 9 332 12 174 13 359 15 177 8 221 41 83 11 274 42 200 26 57 22 66
2787 -1.0844582777790921 -1.8197754816605265 10.17164582575249 153 123 96 0.30075363158169582 22 361 26 369 28 345 25 287
1190 3.6103583836951301 -1.5866298910158341 10.503121380196671 73 65 50 0.82011563227586193 4 194 48 176 12 167 15 161 23 64 3 77 20 176
2786 2.0551383369014689 -1.80822086141852 9.9067080205937081 101 66 37 0.15799685880036082 22 286 26 366 28 343 25 211
1989 4.8612652395859346 -2.7350789297931701 10.637220962017043 143 101 68 0.4061677816800946 20 12 42 10 43 16
2785 13.815210169815575 -17.164481097891805 60.435867315793644 67 52 23 0.51902156085373419 32 375 26 357
1188 -1.5206224342882244 1.4660167236700288 9.1701169004236593 167 142 101 0.39393379606002377 4 281 7 169 12 141
2784 2.2696957821318633 1.8855828460768225 7.7043519856887697 208 180 132 0.41173169266613746 22 429 26 350 28 543
1187 -0.78704504780952056 1.2369099910650874 9.7761957627545506 181 158 117 0.6119225912494819 13 169 46 146 12 131 42 139 26 144
1987 2.4038945063572754 -1.1595862526478287 12.716938107681568 142 125 107 1.4897410861635458 10 225 45 79 4 82 2 88 14 105 23 89 11 196 1 77 21 302 6 315 7 276 41 229 9 411 10 390 16 238 16 447 45 306 45 383 4 305 46 374 2 298 48 269 12 67 17 200 14 106 15 171 15 330 23 257 34 217 47 254 5 255 5 315 3 349 11 273 44 227 20 446 21 493 43 69 29 73 42 68 28 80
2783 -2.3191594325937164 1.3413938518971467 9.7281487928233084 187 158 116 0.35111514416069828 22 340 24 168 26 346 28 302 27 260
1186 -2.3466760656123258 0.58570424880644201 11.549689242340724 141 122 84 0.96287029540469238 7 146 12 120 14 167 9 151 20 221 26 236 27 120 29 142
1986 3.5098626613695769 -1.7191552541739719 11.126809790124645 89 73 53 0.94176431771169511 20 570 21 620 40 665
2782 1.5376307082958605 -0.14971404006669223 11.51025423425839 53 48 38 0.62775915817284322 24 122 26 312 25 83
1185 4.4672893723099936 0.29869303216098636 11.871613529512977 81 73 62 0.51692748458497684 41 287 12 116 24 129
1985 -1.1408674563037162 -0.01505437047952044 11.989712971874022 82 70 48 0.52075685452291787 12 581 16 744 45 650 46 621 47 554 21 615
2781 4.5939530534418971 -0.54553527709390193 9.644406287621111 170 123 77 0.96508008449324922 42 430 43 389 26 287 28 361 27 369 29 361 25 222
1984 -1.8020063968189723 -2.7193811121694211 11.562195915984828 55 47 25 1.4908685838459943 11 557 30 706 32 616 35 755 39 670 28 824
2779 -1.2556508372445394 -3.0661816470665912 11.694451391705353 175 146 112 0.46713656706620033 22 6 26 261 27 269 29 8
1982 3.2926080391485342 -0.013288564917452094 11.516451218951465 60 60 52 0.55856463158435843 20 556 21 604 42 682 43 597
2778 0.9570395313944573 1.6625098847408408 8.566564109605352 191 162 120 0.32110810635129095 6 164 26 252 7 193 48 245
1181 5.1545343226575611 -0.72766637471158968 13.533399371032043 104 104 98 1.2605722286551528 7 312 45 227 12 86 14 143 47 271 34 387 44 294 22 79
2776 -3.2654122574703384 1.0913445862280398 10.495877775688998 166 142 104 0.31043288233309557 24 163 26 249 28 298 29 245
1979 4.430376142659906 -1.1134571444609058 9.7378202819333328 70 68 55 0.61457348811726031 20 541 21 587 42 664 43 593 11 547 24 635 22 616 26 648 28 805 27 621 29 585 25 504
2775 0.60429593464210607 1.2314467484761162 9.7347852380122823 180 152 104 0.4480582276623738 24 349 26 242 27 247 25 343
1178 0.030776492149326689 -1.1569736419184158 8.6784670741290775 138 123 113 0.50552314494431039 10 209 12 35
2774 2.1756505780861413 0.58818309103495248 10.846423194317401 122 99 81 0.34571924447689489 22 144 26 231 27 234 29 319 28 278 25 191
1177 0.073681547846246614 -1.7258643582567419 10.333818011453085 100 84 71 1.5895935908740402 2 194 9 45 12 27 47 54 3 68
2772 8.2427930289364451 -5.1800397742877777 52.743920679758453 129 116 81 0.42391358397588991 32 94 26 188 31 71
1175 -3.6620623202855098 -2.7353722005946359 11.785865906035621 100 69 35 1.2896577444824078 10 7 12 5 8 29 47 30 1 11 20 10 42 297 21 162
2771 -1.3082999534128719 -1.9774943447708859 9.8537884787512446 151 105 56 0.94270538244755875 24 178 26 166 27 155 29 176 28 25 25 139 22 281
1974 -3.4473813585677515 -0.51342053008122079 12.171053890025412 81 55 30 1.0665107060862324 20 454 21 500 42 562 43 498
2770 2.5229695080177073 -3.0889406986146541 11.516857650273534 119 75 34 0.30982810241512371 24 10 26 158 28 204 27 149 29 168
2769 1.3350447992269456 1.1508725621723019 9.7092801344932997 194 165 121 0.17332523634116437 43 162 26 137 29 143
2768 -2.6607288235159494 0.6700578638444179 11.475079040683523 161 133 95 0.47829171441891566 42 122 26 134 27 244 28 284 29 145 25 196
1171 1.4109497068824444 -0.65920488367100183 12.73485469420428 82 66 57 1.2282929974042527 6 232 10 243 46 103 2 220 48 192 7 486 13 450 10 402 16 456 46 451 2 395 15 282 15 339 14 359 4 99 23 188 34 378 5 325 5 427 3 362 1 87
2765 0.63543714186691203 0.16096735818434804 11.841898290450066 53 43 22 0.10548515778162453 24 136 26 121 25 101
1168 -1.0652129572315046 1.6643141725807917 8.9608556857648729 197 169 128 0.27672047109533582 4 604 48 556 18 640 33 546
2764 -0.1248094720240611 -0.029794365886735168 11.15822673009016 131 119 98 0.51069186272117706 24 126 26 113 27 102
1167 -2.8174513612058441 -0.57411948036164839 11.154734937979137 119 100 86 1.558582845501753 4 594 7 680 41 657 48 543 14 601 9 656 10 619 13 701 15 515 8 539 18 628 11 521 21 577
2762 2.6193317991541383 -0.51831175319499279 12.605851935848241 53 29 27 1.630122566365342 43 245 26 91 25 234 22 309
2761 4.6869259248402466 -1.000311927449703 12.460380791024932 131 92 48 1.3050610585710793 6 228 26 66 34 227 41 245 46 227
2760 -1.2980176939951724 -1.2848434245742077 10.257128794409477 163 139 110 0.33964512093042715 24 198 26 54 29 50
1963 -3.822891299212281 0.49003574892253576 11.376403304580652 131 110 84 0.95527680244932667 20 359 21 399 42 528 43 471
2758 2.6120492463177278 -1.7084472560643109 11.933102654312242 96 63 31 0.5186058528727745 22 40 26 38 27 32
1161 1.7230540373491603 -0.27449829727131481 13.20156532277811 83 68 47 0.27728328649941059 10 420 48 292 47 338 3 313
2757 -2.686841059520793 -1.8560297398664833 10.721377215706744 97 83 72 1.1228571818341848 34 46 26 34 5 37 25 19
1160 -1.0931922089758976 -2.5219025171199561 11.860077945412362 125 90 58 0.95816209836007882 6 285 9 402 48 251 41 336 10 380 15 250 8 196 34 274 12 152 5 162 3 46 44 140
2756 -1.408421159749536 -2.30681675324771 11.659743681611443 65 59 36 0.40741827511333589 22 182 26 22 28 24
1159 -1.6042582192725516 -0.35238366080082228 11.869260425862228 108 87 56 2.1057804110748268 10 249 48 212 13 262
1959 4.5287289903371413 -0.65302057432963712 9.720501126665603 100 61 21 0.63032741915450652 10 410 13 530 20 395 21 372 42 505 43 442 22 453 24 457 26 478 28 586 27 455 29 438 25 369
2755 4.985079921745454 -2.4466891813851959 12.256246523773978 136 129 122 0.66615311702270186 13 28 26 20 11 21
1158 -0.58228459604027327 -0.6274637041310428 14.788815525838121 122 103 70 0.72818759274769962 9 351 48 202 10 241
2753 -3.6184620938489469 -3.0082214086098991 11.936145051421317 137 110 67 0.46813597579641686 24 14 26 6 28 205 27 268 29 250
1156 -5.4288059543422857 -0.76139436660761128 13.762475137468131 80 58 45 0.42648191684261255 7 271 41 233 48 186 12 68 34 113
1956 -3.2546084601858385 0.42338193142680713 12.317297731553872 76 64 41 1.0808338390502186 34 258 21 331 6 359 42 365 43 270 22 245 19 160
2752 3.472381223487635 -0.79144799216429951 11.665072009283989 124 117 107 0.8928956385952409 22 620 24 636 25 507
1155 -3.4839339890836176 -1.7790185586496818 12.183728723836881 153 123 98 0.94087488641366068 9 219 48 167 20 166
2751 2.7012231591907008 -0.26846827415299535 10.897841526783409 61 60 52 1.2563011770407613 22 471 24 408 25 166
1154 4.9535531443480236 -2.2300797706122641 11.306263227148554 79 50 23 1.4185228787178508 10 189 48 166 15 30 5 42
1954 -1.9458910899306345 -1.4000409111701622 10.504945057887243 62 53 40 0.67236483095629795 13 429 21 291 11 336
2750 -1.5913860489580165 0.45791617200371604 11.927852490250887 139 122 101 1.4951963000543766 23 120 20 222 24 253 6 360 46 259 47 222 25 111
1953 -3.9882535203063654 1.3131897914485267 10.140033527646583 185 162 113 0.24341820330525518 16 291 21 265 22 342
2749 4.8841101883261127 -2.42134410751519 11.086189700324729 55 41 25 0.65194946527640174 21 535 22 551 24 573 20 436 21 483 42 597 43 517 22 508 26 577 27 566 29 528 25 410
1152 0.20459961526446788 1.6050785008031285 8.9177409017591263 179 154 124 0.58180963760513837 41 165 48 140 42 286
2748 2.3695894087511227 -0.99524584393741733 12.765848173766964 24 23 22 0.76490420667150216 20 449 21 496 24 459 6 611 7 648 13 648 41 634 9 611 10 578 16 650 45 570 4 567 46 547 2 548 48 519 12 502 14 562 15 477 8 515 18 501 12 465 41 595 34 497 47 484 5 450 3 477 11 481 44 413 1 376 1 406 42 603 43 525 22 517 28 688 27 457 29 501 25 297 26 387
1951 2.3181719476269618 -0.035894643733981463 10.439480054385605 67 54 37 1.3073568304530612 6 355 20 353 21 235 43 340
2747 3.7379555112715557 -2.8986195770640024 11.405914563103353 64 59 39 0.67166847718875311 10 664 22 634 24 651 25 520 29 606
1150 2.4533615947711596 0.38892550920286872 11.25780621646587 137 113 101 0.27758942630585665 4 261 7 331 41 285 48 124 12 113 47 226 11 136
1950 0.082033904091977375 -0.036648773631178223 11.79720080455391 57 49 36 1.7046869686745232 20 409 21 233 24 125 27 221
2746 -2.9796775223350389 0.68454936521828191 10.553747581754056 140 119 90 0.26587159892222623 22 627 24 645
1149 2.0157124244824813 0.34271449132247411 11.394746202037885 95 79 64 0.22440109862952515 13 145 48 123 43 136
1949 -1.1101165869431644 -0.80710518849523039 10.36421450475815 157 103 49 1.1868281039763799 20 266 21 196 42 215 43 224 29 208 25 159
2745 -3.0132361908848919 0.69577605904514805 10.883098494928696 137 115 83 2.0123619894018772 21 603 24 643 22 624 26 661
1148 1.1171817269870783 0.4167009735454113 11.825317337467673 141 123 98 0.96998634550306695 4 131 41 133 48 120 7 502 15 118 8 170 23 124 43 264
1948 -1.3190764467986293 -0.89897544941035623 10.288275824792553 60 43 23 0.63159053219709904 47 87 21 195 42 323 43 381
2744 -1.5895353060285256 -1.9978053704124301 12.747928281644677 138 120 84 0.50878027114442681 22 613 24 632 25 499 27 617 28 800 29 582
1947 5.6700274850486148 -1.8389766721170115 17.2404988323735 0 0 0 0.34859419369502787 11 188 30 433
2743 -3.2659864702979342 -1.6225627264561255 10.866518703255826 134 109 88 1.3745107557067904 22 612 24 631 26 644 28 799 27 616 25 500
1146 -3.0331249928027688 0.47481622949174684 12.111462883846981 122 104 80 0.47023134388267485 13 135 45 247 48 116 12 106
2742 2.5906611088554077 -0.8694974424391807 11.689610735881184 122 112 103 0.55542707559851556 24 623 28 787 27 605 29 572
1145 -3.7543580373904319 0.48010066052964084 11.157564213522567 117 73 37 1.093331635585324 6 122 9 144 48 115
1945 1.3238032120918648 0.40985599417942792 11.418114600396212 101 87 66 0.053937025126021193 10 127 13 150 21 126
2741 -1.2296094948869056 -1.0671117932224052 10.669999625854615 65 59 52 0.43913652211464943 22 600 24 621 26 649 28 813 27 628 29 590 25 505
1144 1.6247913457909862 -0.77024679757316628 12.818976593636279 153 134 105 0.3065838527747945 4 100 6 92 9 253 41 244 48 98 14 261 8 135 18 253 23 96 3 125 44 86 30 351 19 282
2740 -0.95632130343080357 -3.1282088384875166 11.926015418584321 192 163 119 0.69167555732174202 22 597 24 620 26 632 28 783 27 601 29 556 25 488
1143 3.5078089072339265 -1.111839870674856 9.2795476514645294 86 80 56 1.0503965246736251 4 75 9 233 48 76 14 96 8 107 13 244 5 71 3 222 1 60
1943 4.6356621021278919 0.15601858155450288 9.8483031337709992 151 109 72 1.6164488919602138 48 227 21 117 43 128 28 260
2739 -1.6537454043250883 1.3161974638069669 9.5285072323411288 153 129 91 0.73747906191644219 22 594 24 619 26 627 28 778 27 612
2738 -5.5802243145579844 0.56700143599346686 12.441979049320897 147 125 84 1.6654078723600469 34 447 24 615
2737 -4.7585153030920173 0.32381948150703233 12.782678529891752 84 69 57 0.43670709661860929 22 586 24 612 27 609 25 484
1140 2.7896416669919168 -1.7810714271077066 11.734954711407099 77 67 55 0.18653400118797281 13 48 48 58 3 74
2735 -0.79744043659917707 -0.63029526344028308 14.660689028809117 54 42 30 1.0592503286476453 22 565 24 609 25 480
1138 -1.2042341661529579 -2.3030937222936783 13.322341015416091 85 59 36 1.2358089885464676 10 23 48 45 4 29 6 37 15 27 34 62
2734 -1.1193350047654398 -1.6180746919413771 11.318723609358228 172 143 105 1.0447688733438554 22 555 24 605 26 635 25 477
2733 -0.79355560467950714 -2.4551271191978614 11.110143344967835 185 153 117 0.90029729778706635 22 582 24 599 26 607 28 773 27 587 25 473
1136 5.0292094786352219 0.76029140018217711 9.9994528135946936 181 164 141 0.4121403625477405 7 341 13 284 4 147 10 281 2 257 41 295 16 141 17 122 19 195 43 271 37 376 33 165
2732 -0.844951468728532 1.4704383039176345 9.0003904200656795 170 147 106 1.5195980930903243 22 579 24 595 26 628 42 647 28 762 27 598
1135 2.9983531892995461 0.71028441716363788 10.681596315999135 134 117 96 1.4239051736955992 4 636 31 691 6 692 7 720 41 709 9 692 10 659 16 735 45 644 4 634 46 613 2 617 2 620 48 594 12 576 17 697 18 672 20 560 19 673 21 607 42 686 37 766
2731 -4.2706237993897922 0.54213818415711112 12.120690316843843 146 122 87 0.70479910203553597 22 536 24 593 26 621 28 754 27 576 29 565 25 469
1134 -0.24261077638367382 0.45006274174318939 11.59079576428115 158 138 103 1.3777315965427961 7 325 16 127 4 256 46 131 2 251 6 449 7 621 13 542 41 555 10 538 45 333 4 488 46 468 6 363 48 498 12 428 14 500 15 218 15 455 8 266 8 496 23 394 34 265 34 398 5 399 3 158 3 428 11 311 11 415 44 364 1 197 20 295 30 594 21 457 42 457 43 468 32 485 37 443 35 368 38 378 33 377 36 414 39 436 22 400 24 427 26 427 27 419 29 323 25 398
2730 -4.9815981940372875 0.58136575200926521 12.190150523291079 155 128 87 0.74865662554558687 22 590 24 592 28 777 27 611
2729 -3.7741529683934982 0.51494460667703901 10.814456359444318 133 107 75 0.53020765956814275 22 576 24 590 26 622 28 752 27 596 29 566 25 470
2728 -1.1466728267674335 0.31558829721853277 12.572548259288224 71 59 45 0.13330326637768222 22 573 24 589
1131 3.0958287588172291 -2.0506354012066135 11.887288080041143 133 119 91 0.99711645828432738 41 687 2 594 17 674 8 560 18 655 1 447 20 537 19 659 40 640
2726 2.1784544354000124 0.19946180953134104 9.9989740395026434 65 63 57 1.0623989192468 22 569 24 582 27 592 29 536 25 463
1129 2.4980507649663011 -2.3702684648901524 10.845236204090027 43 35 22 0.30053295449643264 13 636 2 542 15 467
2725 1.8257674850823231 -0.5604630058743495 12.979563614359099 16 12 13 0.31663121735010852 22 583 24 579 26 611 28 789 27 591 29 559 25 458
1128 4.8113749354935598 -0.28210399439165712 10.521217266318828 98 66 40 0.9136032163495873 6 582 7 655 2 525 48 494 12 417 3 483 44 392
2724 -1.9957870594213603 -1.4377111499473236 16.881052666495737 57 50 27 0.45274587358511859 22 557 24 578
1127 -3.422033311070988 -1.678064063104765 12.238767849026006 146 125 87 0.82412573609122208 31 480 2 504 18 563 30 418 21 489 42 550 43 488 32 315 32 453 37 327 37 402 36 374
2723 0.25604136942882594 -2.0176694284237193 11.973816450120033 155 135 111 0.95146872053775511 22 510 24 574 26 580 27 567 29 531 25 456
1126 -3.4089859541807739 0.48075704111116635 11.303499562204767 125 114 73 1.4210857275876623 31 434 2 407 37 620 38 520 36 406
2722 -1.11020025936222 -3.1998156384944485 11.972177205320863 190 158 118 0.82978078170114011 22 550 24 571 26 529 24 526 28 564 25 351
1125 3.1297527950314508 -0.68872491628507349 12.785649478725638 82 76 64 0.82411835909220121 10 404 2 397 14 425
2721 -1.5257724427781159 1.6257299259309419 9.0141836909606834 167 139 100 0.78599766740644128 16 571 24 568 2 540 12 444 17 540 46 494
1124 1.7422734229653125 -1.0937531686294204 14.588485799496587 117 108 79 0.33560595197841026 13 440 2 389 47 321
2719 2.4010386892972533 0.23564171939332859 10.446422769838335 64 62 56 0.56492382915969264 21 513 24 543 26 499 27 478 25 432
1122 -3.5453228724560235 -0.53757711000888531 11.03492376000826 158 136 106 0.79310750849561373 6 317 7 391 16 526 45 458 46 434 2 386 12 400 17 505 23 367 47 381 5 264 3 352 1 329 20 273
2718 2.0889872795680384 -0.94747177825490903 9.9705916124061496 146 89 32 0.58078028862140463 22 516 24 538 26 544 28 685 27 525 25 421
1121 -3.1059948279093015 -2.1636263488090131 12.622242658517008 113 100 71 1.1875398472000351 13 337 31 20 2 373 17 325
2717 2.0711576454703029 -1.3094767264371252 9.9571534418322507 140 88 51 0.56224586508755792 22 452 24 536 28 679 27 450 25 419
2716 2.6032649807844845 -1.6241387897282731 11.66210572965889 155 133 102 0.63298032378977531 22 451 24 534 26 539 28 678 27 521 29 497 25 417
1119 -2.7373641860846862 -2.5378413456214055 14.518484204462295 102 92 67 1.7056038157096762 4 180 9 26 41 202 2 287 48 160 15 26 8 55 8 201 44 27 1 21
2715 2.3597045339377614 -2.4542145021160042 10.861328500926682 124 87 49 0.34505678883348445 22 507 24 528
1118 1.3997146598930656 -2.4364100604877419 11.839041779532382 138 123 106 1.3874459147260532 6 291 10 383 2 284 9 20 48 257 17 321 14 401 15 19 15 318 8 49 34 37 11 326 30 494 31 469 21 169 32 445
2714 1.2787581165590736 1.9477272599386466 7.8625298158409702 227 203 155 0.7888599711101173 22 431 24 525 26 526
1117 0.069528403563912503 -2.2590613478692991 11.026379347866921 217 199 160 1.4843337885332495 10 382 2 283 18 402 5 25 11 258 20 18 43 297 22 183
2713 0.82734911793072463 1.6134223897775524 8.6735868986632791 214 186 148 0.19428625708710645 22 501 24 518 26 519 28 640 27 503 29 486
