# 3D point list with one line of data per point:
#   POINT3D_ID, X, Y, Z, R, G, B, ERROR, TRACK[] as (IMAGE_ID, POINT2D_IDX)
# Number of points: 266, mean track length: 10.268807339449541
1076 -2.5822915172754621 -3.1674826497292661 24.251412481949391 154 142 120 1.0655530107567235 8 22 11 11 3 6 16 19
279 -5.9362184210524047 -2.4446275222118943 20.749147254073442 211 198 177 0.88944916240502436 7 448 19 417 8 488 6 434 17 349 5 366 18 342 24 372 23 339 22 380 1 342 12 406 20 344 11 417 10 368 21 303 25 325 3 309 4 324 13 323 16 350 2 308
675 2.8543151182788717 -3.0557475131686198 22.902908957363461 174 165 144 0.29736652885190329 19 289 24 209
1075 -7.6491826818922029 -6.5562037694889224 52.553692477879125 0 0 0 2.3531377901949257 7 20 12 17
278 -3.1745101525348463 -2.6432857447895768 22.015903859808009 211 199 167 0.76332158748724865 7 309 19 366 8 486 6 378 17 352 5 362 24 370 23 344 22 327 1 345 12 330 20 347 9 493 11 362 10 305 21 306 25 328 3 250
1071 -0.90598855696329861 -3.2830943041441576 23.693459091370269 186 125 87 0.39589808431394524 7 302 8 337 17 280 23 266 22 249 1 264 20 278 9 411 19 356 5 356 18 332 24 363 12 323 11 356 21 297 25 243 3 245 4 239 10 220 16 267 14 240 15 246
274 -0.038349605033549575 -4.7677961130597364 23.869467874893221 223 139 14 0.3773057090088347 7 440 8 476 6 424 5 411 18 326 10 364 21 368 25 383 13 391 16 337 14 385 15 389
670 -5.5794607189177112 0.64163824945667303 20.118859296663889 108 101 88 0.42632669477329171 17 187 19 270 24 184 23 95 22 153 1 169 12 152 11 262 10 63 21 125 25 147
1070 0.45920967817402553 -1.0982163393796531 23.655044473072344 140 59 103 0.71494603924159961 19 308 7 331 5 311 24 234 23 290 1 288 12 361 6 399 9 356 8 156 17 153 18 63 23 207 20 212 10 245 21 167 25 204 3 278 4 269 13 56 13 279 16 303 2 263 14 148 15 281
273 -0.040333125978960348 -4.7628976080745451 23.859067226418965 223 139 14 0.30180810798923324 7 439 8 475 6 423 5 410 18 325 10 363 21 367 25 382 13 390 2 368 14 384 15 388
1069 -6.0681549260228387 -1.1694415113181003 19.648613891186606 223 128 131 0.54980848682986494 19 219 17 211 5 230 18 225 7 245 24 232 23 201 1 199 20 205 9 257 22 45 11 224 25 189 3 179 4 108 13 124
272 -3.1263447843789431 1.6867071676546859 20.388712228263252 179 136 91 0.59711095096900269 7 438 8 474 6 422 18 322 5 342
271 -0.96638673064169511 1.7836319711659938 20.479931561018947 179 128 73 0.031083097066046714 7 371 8 473
267 -5.7628078992775018 -0.041604790123834848 19.827572971765388 200 186 173 0.53777833649517315 7 430 19 440 8 465 6 417 17 391 5 396 18 381 24 445 23 367 22 359 1 437 12 434 20 374 9 520 11 390 10 340 21 347 25 356 3 387 4 393 13 361 16 385 2 340 14 354
265 -5.7368341159911189 -0.24016693621753227 19.763881098978558 44 19 9 0.40292849470273567 7 424 8 462 17 389 18 375 1 380
264 -2.027976963031044 0.029975414867886532 23.406009846038522 67 52 31 1.4179668531126657 19 329 8 456 18 313 22 292 1 385 12 378 11 254 21 268
263 -0.78295781419512012 -0.12178268464792938 23.497658939709169 91 157 112 0.49156033139291722 7 428 8 454 6 344 7 263 17 239 5 331 18 303 24 325 19 322 23 309 22 286 1 386 12 279 20 235 20 315 9 462 11 395 10 346 25 362 3 350 4 362 13 368 16 317 2 349 14 363 15 295
260 -1.3963281282072018 -0.46970023367732028 23.487134669246288 97 95 130 0.53655205997057276 7 417 19 391 8 446 17 380 18 366 24 316 6 340 23 294 22 356 1 375 12 368 20 219 20 309 9 452 11 389 10 248 21 257 25 292 3 342 4 273 13 202 16 393 2 207 2 268 14 276 15 288
258 -5.8961085659724022 -0.93350442589429705 19.872903108316656 168 144 121 0.39678147308898221 7 253 8 443 6 329 17 373 19 431 5 383 18 291 24 395 23 358 22 342 1 431 12 425 20 412 9 514 11 376 10 321 21 335 25 344 3 383 4 389 13 351 16 369 2 327 14 340 15 262
257 -5.7346460346211581 -1.1218266899591092 19.990092978826464 150 38 40 0.62542735740113686 7 412 8 442 6 400 17 308 18 289
252 -4.4774851615842657 -1.6922790706993083 19.391709591552793 236 134 139 0.5481162788284496 7 397 8 435 17 363 18 348 24 435 23 412 19 422 22 391 1 420 12 418 9 547 11 426 10 378 21 383 25 395
251 -4.4761941964362606 -1.6911194566838839 19.388620035594805 236 134 139 0.54649974383347555 7 396 8 434 17 362 5 372 18 347 24 434 19 421 23 411 22 390 1 419 12 417 9 546 11 425 10 377 21 382 25 394
249 -6.0408596192648991 -2.1003639988120884 20.572934671349287 176 153 127 1.8485148136185146 19 297 8 428 6 387 24 376 12 333 23 189 20 284 11 300 21 314 13 112
645 -5.6319023040951484 -1.5549182999609528 19.436536250549704 85 74 85 1.0065002831752854 19 34 17 31 5 42 18 46 7 39 8 46 6 39
1045 -9.8264211244647601 0.0032236411040089587 24.122677547800205 153 129 101 0.05547703768114072 7 276 9 275
248 1.0175958819825257 -2.0236397750672852 23.803997524100797 222 190 2 0.77892789906367743 7 400 19 376 8 427 6 386 17 360 5 369 24 383 23 414 18 344 22 393 12 344 1 354 20 285 9 423 11 307 10 319 10 419 21 324 25 267 3 325 4 385 4 427 13 401 16 375 13 345 2 323 14 259 15 349
247 -4.3958590322054709 -2.271012546019695 20.632644002628453 100 89 104 1.3345072527169426 7 308 8 422 6 381 18 273
245 -0.56501154779257556 -3.8490984716342833 23.733575667256961 161 175 10 0.38698679298586824 19 285 8 411 6 286 7 223 17 275 5 287 18 265 24 357 1 256 12 320 20 269 9 408 11 281 10 292 21 212 3 244 4 233 13 254 2 236
244 -6.5054350579947977 1.2445741947051869 21.201003218858585 161 124 77 0.98285650227051702 7 367 19 339 8 405 6 362 5 340 18 321 24 416 23 386 22 299 1 396 9 532 11 344 21 363 25 309 3 297 4 220 13 311 16 254 2 289 15 159
640 7.8779104676470704 0.85639138554074334 23.500629408501482 177 135 93 0.36578240394198397 8 504 18 409 24 450
1040 -1.6119111391815695 0.86394718108534596 23.47618230173136 171 134 81 0.57427035920957281 20 178 9 223 21 132 6 357 15 82
243 -4.1471806562842621 1.2022112648771721 21.163210158316971 110 59 14 0.24621983685752019 7 368 8 404 17 262 9 310
1039 -3.9272430002990526 0.29703134242247753 20.367205172412085 170 162 159 0.1145251022624643 1 86 9 203 11 89
242 -3.6002411993193566 1.0750801054900012 22.109347087921819 151 118 82 0.75231739834525957 7 366 8 401 6 361 17 340 5 339 18 255 24 270 19 273 23 247 22 301 23 321 1 324 12 306 20 257 9 389 11 270 10 276 19 337 21 280 25 167 3 155 4 155 13 166
241 -4.4938845362352522 0.86031006939558285 21.098675673137844 141 112 78 0.58142112124814982 7 362 8 399 6 360 17 393 19 406 5 402 18 386 24 412 23 384 22 370 1 394 12 382 20 427 9 385 11 402 10 357 21 362 25 374 3 398 4 401 13 419 16 432 2 399 14 420 4 366 15 405
240 -4.4939122547215025 0.86110211332184516 21.081364455476113 141 112 78 0.48380748999902407 7 363 8 398 6 359 17 394 19 405 5 401 18 385 24 413 23 385 22 371 1 395 12 383 20 426 11 403 10 356 21 361 25 375 3 399 4 402 13 418 16 433 2 398 14 421
239 -5.056924988629639 0.64677559348446823 19.763075894073136 157 151 137 0.29385684338047907 7 291 19 336 8 397 6 277 17 339 5 338 18 251 24 350 22 295 1 318 12 303 20 324 9 383 11 263 11 342 10 202 25 229
238 -5.0564803668246832 0.65137199939661272 19.778660589675226 157 151 137 0.28691747038699933 7 290 8 396 6 276 18 250 9 384
237 -5.2238096102395035 0.74792535328722665 19.894334085679581 91 80 60 0.23111872153807114 7 361 8 395 6 358 17 338 5 337 18 319 24 267 23 244
236 -6.0514800621524367 0.31257426633890267 20.217710694013149 188 170 160 0.1058438547987325 7 281 8 392 6 268
234 -3.5982746509754642 0.097448898851748095 20.80511518626739 106 87 70 1.5275370065788196 7 355 8 384 6 348 17 330 19 328 5 398 18 239 24 340 23 371 22 364 12 292 20 318 11 332 10 263 1 384 21 352 25 303 3 289 4 285 13 293 16 396 14 360 15 286
233 -4.023826367279316 -0.033212360422202325 20.036858618414524 197 191 182 0.37094814284484662 19 326 8 383 6 347 17 327 5 329 18 311 24 334 23 307 22 283 1 383 12 290 20 314 9 466 11 393 10 256 21 263 25 298 3 286 4 358 13 289 16 309 2 273 14 357 15 360
1029 -5.9216244775906164 -2.6253536428990198 20.854272344483341 179 167 151 0.77454442853593486 22 106 23 19 16 98 13 105
232 -4.1546034795234483 -0.095780524571813019 19.856731075788929 48 31 24 0.24670224679171901 19 395 8 382 6 346 17 326 5 328 18 310 24 403 23 368 22 360 1 382 12 377 9 524 11 392 10 341 21 348 3 346 4 357 13 362 16 392 2 341 14 356
231 -1.9085597377278358 -0.41712970931096371 24.953229865089536 122 105 80 0.17104797722059481 7 347 8 376 6 253 18 302
230 2.7163162520124309 -0.1136953132222667 23.932646091401445 140 115 84 1.4110204735455312 19 325 8 372 6 256 17 232 5 326 18 232 24 248 23 232 24 160 1 307 12 286 11 341 4 294 17 325 16 328
625 -6.2732209652444375 -0.4272628576317109 19.682102847075512 177 151 115 0.21890969680648839 17 227 18 233 13 200 14 139
228 -3.7511280441175301 -0.69766546972022958 20.161523885185805 185 101 17 0.33103205871656477 7 333 8 369 6 330
226 1.1204808047377672 -0.51662341756089702 23.711099038708532 153 61 112 0.58960444391811084 19 243 8 366 17 225 5 320 18 231 24 242 22 280 1 216 22 201 23 146 9 283 11 251 11 326 25 215 3 199 4 279 13 211 16 139 2 212 14 213 14 284 15 213
225 -5.9989496969976779 -1.0820321410106362 19.938443092442647 185 57 61 1.527904038791551 7 252 8 364 6 325 17 306 19 305 24 300 23 203 1 200 12 263 21 159 25 270 16 285 14 255 15 192
224 -6.0042063554171214 -1.0443802366913315 19.7201215244399 185 57 61 0.77116122564730993 7 251 8 363 6 324 17 307 18 288 24 301 25 271 4 342 14 330 15 190
223 2.0320155351371261 -0.58388956513512902 23.854310642137555 190 175 156 0.35799047511140492 7 334 8 362 6 327 18 297 17 382 24 311 23 366 12 364 20 370 1 436 9 459 21 346 25 360 3 345 4 360 13 367 22 357 16 397 2 346 14 366 15 368
1019 -1.0563627561575257 1.7787655635336326 20.484662628085395 96 73 47 0.91290044182035046 19 489 7 520 20 434 6 492 12 446 11 453 25 420 25 453
222 -0.63557569134557768 -0.96606137206897069 23.573017411247115 40 43 51 0.66797442794325368 7 255 8 361 18 227 10 242 14 272 15 280
221 -3.9204123588705082 -1.2719107466596746 20.102882255302706 162 37 49 0.42339769440395358 19 225 8 357 6 318 17 299 18 285 24 230 17 212 10 100
220 1.4244356902564308 -1.1136236320564581 23.768037061915813 196 180 164 0.35702665496038355 19 310 8 355 6 322 7 409 17 377 5 312 18 359 24 392 23 292 22 273 1 292 12 362 20 299 9 440 11 382 10 335 21 253 25 352 3 279 4 353 13 281 16 305 2 264 14 350 15 357
219 1.4244356902564308 -1.1136236320564581 23.768037061915813 196 180 164 0.35702665496038355 19 309 8 354 6 323 17 378 7 408 5 313 18 360 24 391 23 291 22 274 1 291 12 363 20 298 9 441 11 383 10 336 21 254 25 353 3 280 4 354 13 282 16 304 2 265 14 351 15 356
213 -5.9944307137209147 1.9290743106565673 19.897988542976993 85 45 10 0.38378314733897168 7 220 8 328 6 204 18 111
212 -6.1661208792910767 1.884516786888466 19.914557681847377 74 34 1 0.33376162134031123 7 295 8 327 18 323 5 344 12 314
211 -6.0957640066617751 1.5677283616539963 20.577083499870035 62 45 21 0.4684455307700533 7 209 8 325 6 198 17 191 5 206 18 197 24 100 20 108 11 112
210 -3.0758681658156251 1.8388220055170863 20.474113227498627 165 119 78 0.48489588498509945 7 211 8 324 17 194 19 282 24 272 23 256 22 242 1 334 12 315 20 265 9 399 11 278 10 211 25 240
606 -5.0905313937893677 0.79231408868747955 19.946838688873893 101 91 62 0.63280611554534594 8 219 18 102 24 94 23 96 22 88 11 101
1006 1.0923897405532559 -3.0624238790609857 23.804252493448939 65 51 40 1.1291329769734111 22 431 20 442 9 608 11 490 2 412
209 -3.7984831823313328 1.4334388529307973 21.240175488452881 31 21 7 0.64855674366821103 7 293 8 323 18 256 23 326 20 261 9 312 11 200 3 235 4 229 13 243 16 257 14 236
207 -5.3094805663531632 0.64688411744663898 19.816951599292761 150 142 124 0.180176505004356 7 289 8 318 17 188 5 274 18 249 24 186
206 -5.4419154703292607 0.76170468322927043 20.719697156609964 106 85 66 0.93584704778607553 19 272 8 317 6 275 18 253 22 231 1 243 12 153 20 256 11 187 10 125 21 200 25 152 3 69
204 -5.3769168392387003 0.5566556650723824 19.87670059600612 125 112 96 1.4859032428678616 7 102 8 314 6 107 6 271 5 271 12 222 24 183 21 197
201 -5.731568887804749 0.21664397297702565 19.736265104992917 196 182 170 0.39216035636615859 7 282 19 154 8 308 6 265 17 251 5 264 18 176 24 257 23 156 22 141 1 153 12 213 20 241 9 292 10 111 21 115 25 124 3 135 4 125 13 143 2 128
199 -1.8299943630315905 -0.12365254358685435 23.502134947354083 81 71 65 1.0458623466149528 7 270 19 144 8 299 5 253 18 237 24 254 23 231 22 215 1 146 12 206 20 234 9 285 9 366 11 178 10 113 21 114 25 136 3 125 4 203 13 210 16 232 2 135 14 218 15 155
198 -1.9998047206952516 -0.25667869329895365 23.598017185924849 76 61 42 1.6223100339575778 19 72 8 298 6 257 5 244 18 235 24 245 1 145 12 205 9 280 25 123 3 206 2 205
193 -3.8906534782131663 -0.90322942457667166 20.244253736477777 162 146 121 0.011065468303659839 7 66 8 287
192 -4.9728687903360047 -0.92898806085020968 19.303249135825418 134 75 49 0.24118182303863756 7 254 8 286 18 140
191 -6.1674039006064065 -0.96727450761023193 19.665214456259317 233 129 135 0.41587757216387472 7 250 19 229 8 283 6 241 17 47 5 155 18 149 24 137 22 120 1 132 12 189 9 262 11 145 21 101 4 109 13 126 16 115 2 116 14 42 15 32
189 -4.4641789607737428 -1.5216406417074662 19.705778174117942 75 40 48 1.1392275384990069 19 216 8 274 6 228 7 242 5 147 18 51 18 222 24 225 23 198 22 37 1 192 12 257 20 201 9 253 9 341 11 219 10 32 21 153 3 27 3 177 4 177 13 122 16 191 2 184 14 202
187 -3.6927900005896248 -1.6298938850779887 20.232212018702985 84 69 72 0.51872107961707636 7 151 19 115 8 270 6 143 17 207 22 115
186 0.11458505468675698 -2.0368671428864471 23.725916883059046 176 61 57 0.73666180604347886 19 214 8 259 6 223 17 204 5 304 18 278 24 223 7 147 23 196 22 118 1 277 12 255 20 198 9 249 9 337 11 306 10 231 21 96 21 233 25 266 3 31 3 263 4 250 13 123 16 201 2 111 14 129 15 195
183 -6.4680655535862126 1.8306334617342033 20.101606185573747 114 69 33 0.30031606371405239 7 213 8 232 6 203 18 108
182 -3.9530968132018356 1.8725437536250915 21.14887869411729 112 68 33 0.65745232370168083 19 190 8 231 17 193 18 199 10 143
181 -6.8046830079320086 1.4242724570448504 21.231477159614748 165 127 82 0.28749020490974481 7 117 8 229 18 107
180 -3.1618387389640326 1.6113165953324895 20.76277309358742 98 59 25 0.65585135271817518 7 119 8 226 17 266 19 280 22 240 20 331 11 277 11 347 10 210 21 208 3 83 13 98
179 -3.9808541952512102 1.3090098879538972 21.003559863309292 131 79 19 0.32939224032266595 19 188 8 224 6 195 17 190 23 182 11 111 21 138
178 -5.9939615501114334 1.1363576434569849 20.800703116824451 164 98 24 0.23676618330296573 7 207 8 223 1 96 12 86 9 121
974 2.5046630800361709 -0.24776551838490174 23.916478431545098 135 126 115 0.57183214985917474 19 324 6 336 22 290 1 301 12 285 19 253 7 261 8 290 6 249 17 231 5 246 18 159 24 159 23 221 22 220 1 223 20 223 11 258 10 198 21 192 25 220 3 208 4 210 13 218 16 150 2 214 14 224 14 298 15 218
177 -4.0774520520508464 1.061358459513845 21.092904362741347 129 61 4 0.3373006521055244 7 115 8 222 6 111 5 114 12 85 20 105 9 227 16 80
175 -4.5332641710080814 0.49646072518534706 19.821275107592776 144 133 120 0.3760074070739382 7 106 8 215 6 187 17 177 19 268 5 107 18 187 24 84 23 238 22 147 1 240 12 225 20 253 9 306 11 180 10 200 21 120 25 149 3 217 4 70 13 81 16 144 2 152 14 163 15 150
174 -4.7610170145571518 0.48911013580916296 19.719128928783029 182 174 161 0.1724297871837889 7 105 19 163 8 214 6 99 17 176 5 190 24 174 23 162 22 146 1 239 12 144 20 168 9 305 11 85 10 118 21 119 25 148 3 142 4 141 13 154 16 142 2 150 14 162 15 147
173 -4.8890930306465146 0.54767795526748531 19.704415402043328 142 133 118 0.43722988972190235 19 267 8 213 6 273 17 259 5 273 18 186 24 263 23 237 22 228 1 238 12 223 20 323 9 379 11 264 10 199 21 201 25 225 3 215 4 213 13 153 13 226 16 235 2 218 14 161 15 148
172 -5.5354881967300811 0.37506752513514896 19.674863883224436 163 145 131 0.74837547045495256 7 186 8 212 13 74
171 -5.5370449095274576 0.3660046921002863 19.635809906303738 163 145 131 0.29817538046262326 7 187 8 211 20 88
170 -5.67753946295357 0.43690352263431032 19.744559463794193 188 173 158 0.37829200420654668 7 194 8 210 6 186 17 175 19 161 5 267 18 184 24 83 23 235 24 345 22 223 1 228 12 220 20 249 9 199 11 83 10 117 21 118 25 139 3 212 4 134 13 150 16 64 2 142
169 -6.0340731869522557 0.43031370074980502 20.082029460096848 143 117 83 0.25130911242154907 7 101 8 209 6 185 17 97 5 105 18 183 24 171 22 80
168 -6.1625462961593733 0.33565431771881915 20.216156545119496 152 124 92 0.24837434586818119 7 185 8 208 6 98 18 92
167 -0.67945558715225918 0.73979177397116491 23.461374583067439 51 41 16 0.24289853869136302 19 183 8 207 24 194 23 177 1 176 10 134 4 158 16 167
166 -0.67916984706195549 0.73989646766820272 23.462871712242904 51 41 16 0.21429377038464495 19 182 8 206 24 193 23 176 22 163 1 175 10 133 4 157 16 166 2 157
165 -1.0314546717197579 0.74596495855697853 23.402372424034724 47 36 24 0.060648898409567165 7 196 8 205 20 173
961 -4.988162098166689 -1.5496786034108088 19.24686712425968 196 116 119 0.53137915009228542 22 255 12 256 9 340 11 304 10 163 25 186 16 190 2 183
164 -4.8961897278972266 0.27818623216689825 19.609166310989341 203 191 179 0.20343745698194851 7 94 8 203 6 93 17 171 5 187 23 157 12 141 20 165 9 300 11 176 25 140 13 76 14 156
960 -0.38986949374648161 -2.1182392050547079 23.169574897935224 57 37 46 0.6919761405637832 17 293 12 254 21 225 16 38
163 0.48875360402261803 0.44791454611554316 23.582033184017959 39 101 117 0.16749477250074435 19 158 8 187 2 153 14 180 15 166
162 -0.38971466537507521 0.038616022277281774 21.001723642202826 0 0 0 0.21546652150167042 7 177 19 80
161 -4.8674907916808108 -0.76716889939775557 19.340311527576151 147 64 72 0.4830772166888227 7 69 8 182 17 59 22 125 1 211 11 51 9 269 10 45 21 107 25 114 4 118 13 131 16 126 2 121 14 137
160 -4.4743526547596275 -0.78860154399779769 19.468319124853572 130 51 48 0.29202791700105929 7 70 8 174 6 163 17 158 20 155
159 -5.9947083848182388 -0.95189366213346327 19.775431944939118 188 137 113 0.51002019220699502 19 230 8 172 17 147 24 52 19 52 23 137 1 133 9 170 9 263 21 102 21 160 25 108 3 45 3 116 4 114 13 41 16 40 2 36 2 117 2 191 14 45
954 -1.453734158574512 -1.0614145811102775 23.526240120222109 105 105 126 0.14454900778252114 19 128 12 193 25 116 13 135
157 -4.9709677290624192 -1.0902534736232115 19.191636614893905 52 28 41 0.21370196469992764 7 156 8 162 6 54 10 35
953 -1.453734158574512 -1.0614145811102775 23.526240120222109 105 105 126 0.14454900778252114 19 127 12 192 25 115 13 134
156 -3.5516041802005747 -1.1975532251077352 20.283611977584531 224 119 126 0.29160371713395578 7 157 19 228 8 153 17 146 18 136 23 135 22 124 1 203 12 187 20 144 9 345 11 148 10 170 21 106 3 183 4 184 13 193 16 202 2 119 15 198
951 -5.0089249076010525 -2.5793229234282986 22.70759622019656 187 168 154 0.48901781286583534 8 132 23 118 12 175 20 123
154 -4.7997577086160632 -1.5320923721499617 19.281416479580745 153 77 89 0.48558706607387109 7 41 8 147 6 42 17 33 5 145 24 129 23 125 22 36 1 122 20 136 9 252 10 98 21 95 25 103 4 102 2 102 15 23
950 -3.8867137246909569 -2.6293865808449866 21.192433589848999 111 106 108 2.1868836133206733 1 15 12 174 9 21 4 11 16 17 14 113
153 -3.786622924367308 -1.5545030210915098 20.156728743593543 181 158 144 0.47424593222331696 19 217 8 142 17 142 5 149 24 226 23 199 22 182 1 193 20 202 9 254 11 221 10 165 21 155
549 -5.5465759018587333 0.12181590421682163 19.646855268151796 166 154 141 0.39977590262688545 6 92 19 77 5 94
949 -5.7737997365311546 -2.4606886692674017 20.84104956453028 113 109 126 1.1798838336621538 5 216 8 131 12 172 22 19 21 143 25 175
152 -3.7851262125782226 -1.5520457374626939 20.209853833467751 181 158 144 0.60407902753558718 19 218 8 141 6 44 17 141 5 148 18 55 24 227 23 200 22 183 20 203 11 220 10 166 21 156 25 188 7 43
948 2.3765212085039549 -3.5888236114707368 24.135360732717746 176 167 150 0.30164435125848055 18 6 12 166 10 6 14 116
151 -4.3220014453731084 -1.7448717985787277 19.712459023700596 101 71 83 0.29622165330328026 7 32 8 140 5 300 17 364 18 127 24 379
547 -6.2574036517333553 -0.4339462451488888 19.687718277222341 183 154 116 0.74441099535426369 6 167 19 138 5 83 24 63 23 144 22 129 3 49 2 45
150 -5.8405900986150128 -2.3084920381376954 20.711867531844117 118 114 123 1.5883259110660766 7 24 17 131 6 131 5 293 17 353 18 32 24 212 23 275 22 332 20 192
946 -3.2841113181131494 1.6700631571286257 20.265711680840926 67 45 17 0.48470865001163271 1 250 12 161 9 396 11 115 20 110 13 246 16 177
149 -6.5401372561873767 1.9230791739865329 20.411628992738358 167 119 71 1.9533231810708223 7 219 8 127 6 363
945 5.5018578597276138 -0.53168666461258796 22.846164221745255 0 0 0 0.18172415072229586 17 161 19 66
148 -3.6538551412056797 1.2881372805886797 21.126288269294871 74 48 25 0.15434789151004025 7 116 8 120 6 112
943 -0.52445030723735031 -1.3832532058488209 23.550780975265734 165 63 65 0.099047192757132516 7 159 12 119
146 -4.9699470010468829 0.50387316912429514 19.654253839952908 177 164 149 0.45825166293552505 7 103 8 112 17 98 5 106 24 187 23 88 12 82 20 92 9 113 10 64 25 74 13 80
145 -1.1561701448970907 0.6583135453888278 23.440367923046345 155 158 153 0.19168448679933342 7 111 8 100 6 97 17 101 5 109 18 97 23 102 22 91 9 214 11 105 25 83 3 75 4 76 13 90 16 76 2 69 14 91 15 76
941 -3.0387220213544177 -2.0862365105609761 21.92220214502516 99 92 101 2.3287917085887324 1 32 17 137 12 105 5 39 20 36 10 91 25 183 2 94
144 -5.8515263722894151 -0.64031927993932525 19.854170804949295 170 126 90 0.69208258751696416 19 135 8 77 17 162 5 162 18 76 24 140 23 142 22 128 1 139 12 197 20 157 11 157 10 109 25 117 4 52 13 51 2 125
143 -5.9834079992705993 -0.83868369932852227 19.767249195843124 185 109 33 0.47781857044354198 19 131 8 76 17 156 18 72 23 67 1 137 12 195 20 153 9 177 10 107 21 34 25 53 3 117 4 113 13 46 16 122 14 131 15 37
939 -4.6688325981397396 -2.5190766430870606 19.49633264052952 221 139 143 0.42952405016607953 19 16 12 94 20 120 9 141 11 5 10 12 25 14
142 -5.1484946585778344 -0.8806807071730971 19.037825328415561 75 71 60 1.1315114601110592 7 162 8 69 10 41
141 -5.1839357808875537 -1.0120056405033377 19.537346499617104 63 51 46 0.23933352338890287 7 60 8 61 6 60 18 66
937 -5.7739309520091462 -1.0726420422354039 19.830749259221445 191 145 121 0.54302102812658193 19 53 12 53 20 146 9 171 10 38 25 109
140 -4.665469742199905 -1.543199467287955 19.22929372553422 147 76 86 0.34738397615659733 7 42 8 48 17 34 5 47 18 41 24 39 1 38 20 42 9 155 11 36 21 23 25 32 4 35
936 -4.1240019549003524 -1.2208282485426583 19.45927194697466 60 46 51 0.32973561770820919 1 45 12 49 25 106 9 164
139 -5.6719564249303556 -1.5037206537492553 19.557530913975935 120 112 127 1.3123337687709664 7 46 8 43 6 48 6 49 5 43 12 36
935 -4.2240966555284061 -1.3820921365390531 19.411207795666527 78 77 91 0.26944476004452222 5 58 12 40 9 55
138 -3.3180048319552031 -2.6292380087160083 22.063915505635091 83 75 86 1.0964557677207745 19 21 8 28 5 29 20 25 9 30
934 -4.6468399960377127 -2.1443035601605689 19.362457160215641 221 131 139 0.32050024608326355 1 25 12 24 9 147 25 23 13 15 14 15
137 -0.054047292270900979 -2.6176710100750333 23.743190943842933 59 35 67 0.35026769720776629 19 555 7 577 8 631 6 554 17 528 5 542 18 501 24 558 23 541 22 527 1 574 12 553 20 545 9 669 11 556 10 513 21 514 25 526 3 494 4 516 13 516 16 540 2 501 14 530 15 508
933 -2.9080198566478694 -2.6692754499195206 22.427396229469334 219 206 180 0.92845850858314383 1 22 8 29 22 21 23 27 12 22
136 -1.4599114745686401 -4.5820015386738504 23.925983016920156 84 51 32 0.54010207742042216 19 552 7 572 8 636 6 549 17 525 18 505 24 555 12 555 20 541 9 665 11 554 10 509 21 510 25 522 3 490 4 511 13 509 16 537 2 497 14 526 15 506
932 -7.4278723237326751 -3.0197720325271575 23.974118327596109 170 158 136 0.59951236155967269 7 23 12 15 10 8
135 -6.3447247143135934 1.7037001960982769 20.741633127507523 60 54 40 1.4353618459598025 19 545 8 627 6 548 17 524 5 539 18 497 24 547 23 538 22 519 1 570 12 549 20 540 11 546 10 507 21 501 25 513 3 483 13 506
931 0.39574391711875795 -3.0773410043619318 22.990744287033724 54 54 44 0.77304427034799883 24 117 12 10 20 14
134 -6.6051270346587945 0.80142436456701471 21.517398009229748 169 132 87 2.095918824299503 7 569 8 625 6 545 17 523 5 538 18 496 24 545 19 544 22 525 21 509 25 520
133 1.7546939211443806 0.094757402338481622 23.785843743200651 218 205 188 0.18316398420958255 19 543 7 551 8 594 6 520 17 501 5 527 18 481 24 532 23 530 22 518 1 563 12 539 20 530 9 660 11 545 10 501 21 499 25 512 3 482 4 503 13 504 16 532 2 492 14 521 15 500
132 0.72604938097634653 -1.7612758935376882 23.738479923034454 217 181 1 0.099045648874432041 19 539 7 559 8 606 6 535 17 507 5 523 18 477 24 537 23 522 22 512 1 552 12 531 20 522 9 658 11 538 10 494 21 492 25 508 3 479 4 499 13 502 16 529 2 489 14 516 15 495
928 -5.1484937126069559 -2.469997942828845 22.528934259480074 178 169 144 0.27681015800872399 19 111 1 185 20 30 23 30 11 21 25 25
131 -6.1075916124299168 -2.6602431070659476 20.870990043646479 172 157 134 1.6800366918802372 19 536 7 556 8 614 6 529 17 515 5 534 18 486 24 550 23 520 23 531 1 546 12 541 20 518 20 532 10 489 21 488 21 502 25 505
927 -1.9104499444103296 0.14072909173379064 24.763813773603452 105 79 55 0.807185615560296 22 79 1 152 12 75 9 191 11 90
130 -0.23303135817753332 -3.5379990615943719 23.747004101883935 154 167 2 0.15806464555244562 19 534 7 538 8 605 6 509 6 528 17 489 5 519 18 475 24 536 23 517 22 509 1 543 12 528 20 517 9 653 11 535 10 487 21 489 25 504 3 474 4 495 16 523 2 467 14 512 15 464
926 -5.2870184735592654 -2.570403490812049 20.825304084165737 91 69 84 1.0249768300183602 19 108 1 106 12 96
129 -0.28384378466584709 -4.5444308021597113 23.818917464709155 214 136 10 0.25921380931020255 19 532 7 535 8 602 6 505 17 486 5 518 18 471 24 509 23 514 22 507 1 541 12 525 20 491 9 652 11 533 10 486 21 486 3 473 4 492 13 476 16 519 2 465 14 508 15 460
925 0.112516769091328 -0.36827148816463873 20.162028348705888 49 57 97 0.73085821770177473 23 79 21 47 3 51
128 -0.070476180022345042 0.10415036203472766 23.562009400611874 181 79 15 0.17038183471563029 19 528 7 550 8 596 6 519 17 503 5 513 18 483 24 531 23 509 22 503 1 562 20 511 9 650 11 530 10 483 21 482 25 499 3 470 4 489 13 495 16 514 2 484 14 505 15 489
924 2.5675463072384517 -0.59112389123900799 23.983744767826256 176 161 136 1.1419876808136986 19 473 6 473 24 473 23 452 1 506 19 435 7 335 8 499 6 441 17 383 5 391 18 365 24 441 23 297 23 426 12 426 20 415 20 452 9 518 11 439 10 344 25 405 3 386 3 420 13 437 16 398 16 464 2 389 2 431 14 415 14 456 15 369 15 439
127 -1.0867804675191772 -0.81705476985957648 23.608019857534842 93 93 127 0.30432790361395712 19 525 7 548 8 593 6 516 17 499 5 509 18 479 24 524 23 504 22 496 1 556 12 536 20 505 9 644 11 527 10 480 21 479 25 492 3 463 4 486 13 490 16 509 2 480 14 497 15 480
923 -3.5027542062657853 -1.4623765703656 21.43748064035163 175 162 137 1.5986474666421979 19 538 23 523 22 511 1 551 8 561 5 486 18 404 24 495 22 490 12 546 20 521 11 552 10 493 21 474 21 491 25 507 3 486 13 501 2 495 15 471
126 1.7135097005231379 -0.86913415903387814 23.850773307983449 183 170 153 0.21398620231279736 19 524 7 547 8 590 6 515 17 500 5 511 18 478 24 523 23 506 22 516 1 557 12 533 20 506 9 645 11 541 10 496 21 497 25 493 3 464 4 502 13 491 16 531 2 481 14 518 15 496
125 -0.28726297073311069 -1.7419039256727726 23.655026075788296 173 56 53 0.29066963536080798 19 520 7 546 8 588 6 513 17 496 5 504 24 519 23 501 22 492 12 518 20 503 9 634 11 524 10 474 21 476 25 486 3 459 4 483 13 486 16 505 2 476 14 493 15 473
921 1.4557572789129314 -0.18246155474038084 23.718080180045824 219 211 190 0.51669174076602264 19 398 7 422 8 451 17 387 5 394 18 370 24 402 1 390 7 266 23 306 22 289 12 376 20 312 9 469 11 335 10 267 21 355 25 366 3 352 4 365 16 327 2 352 14 369 15 374
124 -1.6647338862719891 -2.082591876308153 23.653644214913964 39 36 31 1.1549795978628465 19 517 7 545 8 585 6 512 17 495 23 498 22 488 1 523 20 499 9 631 10 472 21 473 25 484 2 475 14 466 15 450
920 0.0077773589963717133 -4.2758417794829926 23.847805582307181 211 134 10 0.48649122361401387 19 350 7 376 6 368 17 343 5 412 18 327 23 395 22 312 22 378 1 338 8 331 24 274 12 239 12 395 20 332 9 485 11 352 10 289 21 292 21 370 25 317 3 302 4 313 13 314 16 338 2 295 14 237 15 239
123 -1.1205463134834861 -2.5709189764747609 23.676554338069423 67 90 109 0.28629498498280931 19 515 7 542 8 584 6 511 17 492 5 503 18 476 24 518 23 497 22 487 1 549 20 495 9 628 11 520 10 469 21 472 25 483 3 458 4 480 13 481 16 501 2 474 14 487 15 468
919 -0.82404666168901197 -1.0375067446074777 23.551127946352278 99 98 129 0.78845367390840804 19 232 5 237 1 367 19 388 7 416 6 397 18 364 24 305 8 359 22 351 12 360 20 365 9 439 9 558 11 235 7 167 10 334 21 338 25 284 3 338 17 416 4 266 13 357 16 425 2 336 14 209 14 346 15 355
122 1.621727977510236 -2.777643715252557 23.965827450713196 99 93 74 0.27711996203299688 19 514 7 541 8 582 6 496 17 493 5 500 18 455 24 515 23 496 22 486 1 520 12 511 20 497 9 625 11 522 10 471 21 470 25 481 3 455 4 478 13 483 16 503 2 471 14 489 15 470
918 1.9971997177925283 -1.5246877121049467 23.942078088235871 152 138 125 0.42524935512864875 5 307 23 286 1 362 7 405 19 383 8 437 6 390 17 369 24 390 22 349 12 349 20 358 9 513 9 551 11 380 10 329 21 334 25 278 3 334 4 350 13 355 16 296 2 333 14 348
121 -1.2523269944394988 -3.5752136833769779 23.722446294927256 181 120 83 0.31046934772047324 19 511 7 537 8 604 6 508 17 488 18 474 24 511 23 492 23 516 22 508 1 542 12 527 20 494 9 622 11 534 10 466 21 465 25 477 3 450 4 476 13 477 16 498 2 466 14 486 15 463
917 -3.6424255401586461 1.0836894604997331 22.33822579451229 137 111 72 0.56106425539081117 19 274 23 248 1 325 19 338 23 322 22 302 12 307 20 258 9 390 11 271 10 277 21 281 25 168 3 156 4 156 13 165 16 164 14 176
120 -0.89775655102143004 -4.9493262237207283 23.816942684040349 47 43 31 0.53039645771671862 19 509 7 533 17 484 5 497 18 452 24 508 23 491 22 480 1 516 12 507 20 489 9 621 11 516 10 465 21 464 3 447 4 475 13 447 16 473 14 482 15 446
119 -6.0845141056558685 2.1464073671901622 19.972657790742929 187 147 95 0.81421298481835525 19 508 7 532 8 601 6 525 17 483 5 474 18 470 24 507 23 488 22 454 1 513 20 470 9 603 11 486 10 437 21 435 25 452 4 447 13 444 16 470 2 437 15 443 20 515
118 1.2913281552726912 0.57898344250809441 23.656995344235128 34 35 29 0.28913291642630162 19 507 7 529 8 570 17 482 23 486 22 475 9 620 11 510 21 460 25 472 4 471 13 473 2 462
117 1.2908818236778148 0.57950492423972966 23.652883571573593 34 35 29 0.2935206715081346 19 506 7 530 8 569 17 481 23 485 22 474 9 619 11 509 21 459 25 471 4 470 13 472 2 461 14 477
913 -1.7993496790366763 0.2549944600754801 23.440866876895949 109 91 55 0.97048922491766021 7 85 23 159 1 159 8 96 20 164 9 291 10 122 21 121 25 72
116 -6.4329197131380571 0.14578132572931995 20.339119374200575 119 106 87 1.2702634669138633 19 504 7 553 8 597 6 523 17 479 5 494 18 467 24 501 22 469 20 485 11 506 21 450 25 464 13 465 2 454
912 -2.704987245901127 1.0767349394214538 23.066208202750666 173 129 89 0.63100187680885111 1 577 12 556 20 548 9 670 11 559 10 516 25 529
115 2.2667609332334382 -0.41552937209321655 23.947487301022996 44 44 38 0.29656500883561487 19 500 7 502 8 563 6 475 17 473 5 491 18 438 24 498 23 476 22 472 1 531 12 498 20 484 9 617 11 504 10 458 21 454 25 470
911 -1.843726358411826 -0.062281868333346736 25.268768957667444 37 34 30 1.8860980611307079 24 544 1 559 20 528 9 647 11 542 10 499 25 511
114 2.2237087738101051 -1.3372943000922961 23.979733783449014 41 42 36 0.23870145053390382 19 497 7 499 8 532 6 467 17 471 5 488 18 431 24 496 23 472 22 467 1 528 12 494 20 478 9 613 11 499 10 449 21 447 25 460 3 434 4 485 13 459 16 508 2 449 14 498 15 481
910 -5.0430310257945754 -2.0003825855004038 20.329552939452036 235 136 141 0.58033283214538167 19 516 1 548 12 530 20 498 11 519 10 468 25 482 3 457 13 485 2 473
113 2.1861345432329022 -2.2816028629162028 24.042813157330841 43 42 38 0.27450531817381113 19 495 7 522 8 559 6 497 17 468 5 482 18 428 24 492 23 469 22 489 1 503 12 514 20 476 9 611 11 498 21 443 25 485 3 432 4 481 13 456 16 504 2 444 14 490 15 472
909 0.74742537874666526 0.11697132949001407 23.647319161076858 11 107 121 0.28559271769489863 22 505 23 511 1 536 11 531 10 485 21 484 25 501 4 491 16 516 14 507
112 -1.7189286241812229 -3.0590646737850657 23.702349067584496 40 38 34 0.34504675552759423 19 492 7 539 8 581 6 510 17 466 5 477 18 454 24 488 23 464 22 459 1 518 12 509 20 471 9 605 11 488 10 442 21 442 25 454 3 428 4 420 13 451 16 445 2 441 14 460 15 419
907 -0.69956363709526681 -2.1482577855901956 23.603030065289488 49 43 40 0.7379586000925128 8 527 23 466 1 500 9 583 19 466 20 443 11 463 10 416 25 432 3 410 16 448 15 424
110 2.2839737858324223 0.52714281684859843 23.850581911012132 34 33 28 0.28973392980843404 19 485 7 510 8 547 6 480 17 459 5 465 18 442 24 504 23 482 22 476 1 510 12 502 20 460 9 601 11 511 10 461 21 461 25 473 3 442 4 472 13 474 16 495 2 463 14 479 15 459
109 0.35811493450706794 0.60948135413175253 23.557642248424823 33 27 22 0.20311896103736976 19 484 7 528 8 550 17 458 5 470 18 447 23 484 1 509 12 505 9 599 11 485 10 460 21 458 25 450 4 469 13 442 16 493 2 435
108 -1.6015918206102415 0.61903678303585863 23.462104101655708 27 30 23 0.17034223089161366 19 483 7 512 8 573 6 484 17 462 5 468 24 482 23 459 22 447 1 508 20 463 11 483 10 432 21 431 25 449
904 -5.7581623339247745 -1.5315465410137628 19.6710219352336 116 113 122 0.51885736860234166 19 379 1 422 12 348 10 313 25 262 3 261 4 247 13 339 2 250
107 -0.95823460767634172 0.43806497015273616 15.824539993446015 27 30 23 1.4710372739748758 19 482 7 511
903 -5.0370742424145147 -2.2500981298361 19.596415969470428 74 71 90 0.7632877991105228 22 324 23 340 1 409 12 410 11 295 9 330 10 302 21 313 25 246 2 19
106 -0.61464850136808413 -0.31393171146314508 23.534076225118568 36 33 24 0.26359033119921144 19 479 7 504 8 542 6 477 17 474 5 459 24 476 23 453 22 470 1 479 12 468 20 454 9 594 11 474 10 427 21 452 25 463 3 421 4 439 13 467 16 461 2 428 14 453 15 436
502 -3.6369510551889626 -0.87434310164590623 20.24488211294906 200 117 17 0.43510257947897318 6 326 17 312 5 315 22 270
902 -1.4058176463423502 -0.45975052672588151 23.510065429136745 97 97 133 0.41979959701903696 19 392 1 376 12 369 20 310 9 453 6 341 10 249 21 258 25 293 4 274 13 203 10 187 20 220 2 206 2 269 14 277
105 -6.3622890035965742 -0.2418789043327276 19.876070008299017 180 155 124 1.3974672446815917 19 478 7 506 17 456 5 462 8 545 18 440 24 477 23 428 5 424 22 407 22 438 20 418 11 500 10 388 10 426 21 422 25 403 13 406 16 307 2 450
104 0.32935889060167622 -0.34443906884571368 23.623500727366345 43 34 32 0.28824872708207072 19 475 7 505 8 543 6 478 17 454 5 460 18 437 24 474 23 454 22 439 1 480 12 469 20 455 9 595 11 475 10 456 21 423 25 440 3 422 4 440 13 435 16 462 2 429 14 454 15 437
103 -5.4954255884951193 -0.36181838326072835 19.683939164659968 192 114 112 0.98581816955978741 19 474 7 503 8 544 6 479 24 443 23 425 22 404 1 476 12 467 20 416 9 561 11 436 10 389
102 1.2397017724805666 -1.2909276124014368 23.773831029225892 43 44 36 0.32779862666954279 19 472 7 498 8 535 6 470 17 448 5 457 18 434 24 472 23 451 22 435 1 472 12 460 20 450 9 589 11 470 10 424 21 420 25 437 3 415 4 433 13 432 16 457 2 425 14 449 15 433
898 -5.2185557092693191 -2.9210140367397428 21.640789407365766 72 68 87 0.84604824718138294 22 247 23 264 1 340 12 328 19 198 20 186 9 540 11 289 10 219 21 215 25 242
101 1.2397017724805666 -1.2909276124014368 23.773831029225892 43 44 36 0.32779862666954279 19 471 7 497 8 534 6 469 17 447 5 456 18 433 24 471 23 450 22 434 1 471 12 459 20 449 9 588 11 469 10 423 21 419 25 436 3 414 4 432 13 431 16 456 2 424 14 448 15 432
887 -5.3127985672103062 -0.91183649149760904 19.537230885650672 71 66 54 0.58633729442787175 19 132 1 205 12 196 9 267 10 42
890 -6.1217903346131886 1.4780398163720498 20.488366529583161 66 50 37 0.64314937511622983 23 181 1 248 21 206
93 -4.8022720436682258 0.38921753990635127 19.667042492233243 187 183 174 0.21669687959903622 19 448 7 470 6 445 17 424 5 433 18 412 23 433 22 411 12 474 22 443 20 422 9 568 11 444 25 409 3 389 13 409 2 392
100 -0.63930080390238497 -1.2312571956854155 23.592373281699487 35 36 30 0.40567099382552763 19 470 7 495 8 536 6 471 17 445 5 455 18 432 24 469 23 449 22 465 1 470 12 463 20 451 9 586 11 467 10 421 21 417 25 434 3 413 4 430 13 429 16 453 2 422 14 446 15 430
891 -7.1072533761796519 -2.6080528800731253 20.770533764879143 178 167 147 2.1071840731232268 18 212 1 267 15 178
94 -3.8127026337262122 1.2502123956251689 21.018034650437489 203 127 28 0.4445235704640314 19 454 7 369 8 471 6 420 17 398 5 405 18 387 24 419 23 387 22 372 1 453 12 444 20 431 11 405 10 360 21 409 25 376 3 364 4 412 13 380 16 439 2 402 14 425
91 2.0361075371798232 0.32479198638507456 23.792498776617009 216 205 192 0.7760956663306724 19 446 7 468 8 461 6 414 17 422 5 431 18 379 24 409 23 380 22 419 1 446 1 489 22 451 12 437 20 383 9 527 9 571 11 447 10 403 10 436 21 405 25 411 25 445 3 359 4 408 4 445 13 377 16 410 16 468 2 358 14 426 14 459 15 409
888 1.1441345352236267 -0.21170999356516132 23.658882040109102 34 104 110 0.32603953440539213 7 78 1 222 11 256 21 187 16 149 22 139 2 138 15 217
99 1.2118320680952712 -2.2357273348023994 23.796443579459673 47 42 38 0.38495727902350541 19 469 7 491 8 526 6 463 5 454 24 465 23 447 22 462 1 502 12 492 20 445 9 584 11 497 10 417 21 416 3 409 4 425 13 424 16 450 2 417 14 440 15 451
895 -0.58999664605174784 0.48377145715840231 23.499097512613869 37 31 23 0.35829459095669114 8 389 1 312 10 272 25 230 8 307 4 218 13 232 16 250 14 304
98 0.26246958684633309 -2.2362465401860376 23.76434012785629 52 38 38 0.5623917316594107 19 468 7 521 6 465 18 458 24 464 23 468 22 461 1 501 20 475 9 610 4 455 13 455 16 481 2 416 14 467 15 426
886 -3.8250242030350607 -1.3666061660054771 20.072025148628533 185 82 100 1.551750664918462 8 149 23 132 1 195 11 225
894 -4.1000581560144012 -1.0803754256181473 19.478714086383569 36 29 28 0.45219057793974121 23 204 1 287 12 264 20 290 9 436 11 312 25 274
97 2.5187684917785162 -3.5055487972824371 24.276798694475495 177 162 139 0.49878006913895362 19 460 7 443 8 519 8 480 6 428 17 406 17 437 5 413 5 448 18 393 24 426 23 396 23 446 1 463 12 450 11 459 9 581 10 413 21 374 21 415 25 391 3 407 4 421 13 423 16 444 2 410 14 461 15 420
88 -5.0733984095246853 0.025115062232251652 19.556687362177865 31 20 12 0.31516100693856375 19 442 7 466 8 507 17 420 5 429 18 410 24 446 23 431 1 438 12 436 9 523 11 438 9 563 10 392 21 394 25 407 3 388 4 356 16 391 2 347 14 355 15 358
885 -5.059501887076129 -1.433632727793162 19.400471084479676 65 37 47 0.57099515238333898 22 180 23 130 1 194 12 181 20 141 11 141 21 94 25 101 13 33 4 179 16 32 2 32 14 38 15 27
87 -5.3107674764569381 0.15629548830205298 19.61423244880304 202 192 183 0.39119867784171486 19 441 7 465 17 419 23 430 22 409 9 565 11 440 21 395 25 406 13 408 4 394 16 390 2 390 14 359 15 359
884 -0.92383714649388382 -1.4754467702073699 14.830435277262486 68 85 21 1.7539666045976761 8 30 1 190
492 -6.5892453755990461 1.5699742439514668 20.655557556026988 59 49 33 0.33256757814930332 19 278 17 265 5 278 23 251 22 236 1 329 12 311 20 330 9 484 11 273 10 208 10 279 21 207 25 237 3 233 4 226 13 241 16 170 2 231 14 233 15 235
892 -2.4849966284690588 -3.1110213365899644 23.97063918187553 167 156 134 1.3260432653790388 5 291 11 294 4 171
95 -0.75723775528229287 -4.0366905087014882 23.717645303488354 47 45 46 0.43200657697573847 19 458 7 481 8 517 6 452 17 435 5 446 18 391 24 462 23 441 22 455 1 496 12 483 20 436 9 577 11 454 10 439 21 438 25 423 3 404 4 449 13 448 16 441 2 407 14 430 15 414
883 -4.2769663025552891 -2.029084564744513 20.452167222999417 120 120 128 0.57360952498463746 22 175 1 187 12 250 11 135 9 334 10 159 21 87
485 0.17194807074364604 -0.15888932231563138 23.579822021980725 188 91 22 0.58929822700620094 8 380 17 229 18 307 20 376 9 368 22 217 10 349 13 298 16 324 15 302
882 -4.7038155596167366 -2.3002132823442922 22.16790266499876 104 95 104 0.78224515806022688 22 172 23 190 1 186
83 0.48162982068333338 -1.4678667468820439 23.631510258431089 219 184 11 0.633258672000101 19 428 7 404 8 491 6 389 17 367 5 378 18 354 24 388 23 421 22 346 1 430 12 357 20 363 9 512 11 378 10 240 9 347 21 243 25 347 3 269 4 391 13 404 16 381 2 332 14 270 15 275
880 -3.6738332134293845 1.7175986189605024 20.425802166581352 50 38 23 0.77407963622559672 24 204 1 178 20 109 5 118 9 319
80 0.47833417217816154 -1.9924792466235006 23.718498572464753 220 182 4 0.72941795456557967 19 424 7 398 8 425 6 384 17 358 24 436 18 401 23 413 22 339 1 424 1 468 12 342 20 353 9 503 11 429 10 317 21 322 25 341 3 323 4 383 13 399 16 367 2 384 14 405 15 348
877 1.1720699735976086 0.1953933898185744 23.530660025020385 26 108 120 1.2517912435123433 18 87 1 161 12 139 9 207 10 68
482 2.3294246160187764 -5.1364529447290366 24.218559005685137 115 110 91 1.0146333139979375 7 127 17 195 24 109 23 1 5 3 22 0 9 134 14 100
82 0.48162982068333338 -1.4678667468820439 23.631510258431089 219 184 11 0.633258672000101 19 427 7 403 8 490 6 388 17 366 5 377 18 353 24 387 23 420 22 345 1 429 12 356 20 362 9 511 11 377 10 239 9 348 21 242 25 348 3 270 4 390 13 403 16 380 2 331 14 269 15 274
879 -4.4428423502225742 1.8047725543213882 20.129129753381292 106 63 36 1.7447727985184402 24 202 1 177 10 141 15 86
84 -4.8049944809510095 -1.0081424833959212 19.132860221158133 107 103 110 0.39046324698669577 19 430 7 500 8 539 6 472 17 451 5 458 18 435 24 438 23 422 22 398 1 469 12 462 20 413 9 553 11 431 10 385 21 388 25 401 3 381 4 347 13 349 16 371 2 328 14 333 15 340
81 0.47732787981155633 -1.9949054749208299 23.735151603340721 220 182 4 0.69618667812983903 19 425 7 399 8 426 6 385 24 437 18 402 22 340 17 359 12 343 9 504 10 318 21 323 25 342 3 324 4 384 13 400 16 368 2 385 14 406
878 -4.4318494483364645 0.47052111032188526 19.828213618896893 176 174 162 0.15289711308176118 19 86 1 162 15 64
79 -1.4642909416628924 -3.2952056380659855 23.617433297413452 188 121 88 0.6349540022611978 19 412 7 441 8 481 6 429 17 407 5 354 18 394 24 361 23 397 22 319 1 406 12 398 12 453 20 336 11 414 10 296 21 375 25 388 3 306 4 320 13 319 16 265 2 303 14 389 15 327
876 -4.2556038925416972 -0.0120519445120723 19.747556302391857 153 103 14 0.36966521083966608 22 71 23 82 1 150 12 73 20 73 9 189 11 70 21 50 25 69 3 124 4 124 13 70 16 133 14 67 15 132
78 -5.5187835234707521 0.93750873635958487 20.899429013919878 143 111 70 0.63772141010448491 19 404 7 476 8 512 6 450 17 433 5 440 18 417 24 456 23 383 22 369 1 321 12 305 20 386 11 401 10 355 21 360 25 373 3 361 4 297 13 378 16 329 2 359 14 299 15 304
875 -4.6504686574922367 -0.93080433360681103 19.122030216440237 118 79 91 0.11598484799382576 24 55 1 136 20 150
477 -6.2745213949273575 -0.85587114628108352 19.649293460046948 210 122 109 0.23861583296279801 19 58 17 155 9 176 11 49 21 33
77 -5.5064290962164932 0.93357948655132494 20.826862776381535 143 111 70 0.48179604595196651 19 403 7 475 8 513 6 449 17 434 5 441 18 418 24 457 23 382 22 368 1 320 12 304 20 385 11 400 10 354 21 359 25 372 3 362 4 298 13 379 2 360
874 -4.0337177701507176 -1.0960346159217966 19.236985908874569 41 29 30 0.40282906473352442 19 46 1 129 12 190 11 47 10 102 25 51
873 -4.4539893209651904 -1.1312477145464852 19.152349870837753 119 108 122 0.13385834006396508 5 232 1 128 11 45 21 104 16 117
75 2.5669597168281699 0.11289558649656332 23.907072866369049 158 129 81 1.2200478908327055 19 400 7 352 6 406 17 418 5 428 18 374 24 447 23 376 22 413 1 443 1 486 12 435 12 472 20 377 11 340 10 350 21 273 21 398 25 370 3 392 14 377
872 -4.744616067017982 -2.112511895846156 21.436595877487857 102 101 106 0.91810962668010687 19 32 1 117 12 103 11 25
72 -0.43303097463020657 -0.13755763116194766 23.519760661146947 182 77 16 0.48213119772194746 19 396 7 348 8 377 6 410 17 329 18 305 24 327 22 287 5 254 1 388 12 281 9 464 10 264 21 265 25 364 4 287 13 216 13 296 16 400 2 274 14 287 15 212 15 297
869 -2.6771654063685872 -0.35137453595558366 24.964734123784581 165 147 123 0.27238851479790022 8 87 16 62
870 -4.9130268803239749 0.18447098846401064 19.606104128258171 149 109 45 0.40167935945509081 19 82 1 79 12 76 9 193 11 79
471 -5.1475820169853357 -1.9515595526615888 19.460668830005108 227 139 139 0.15828640479900874 19 110 17 135 24 217 23 120 22 111 1 116 12 176 20 127 9 243 11 23 10 90 21 86 25 93 3 97 4 95 13 19
71 -0.79328046776477557 -0.49087644910651212 23.533105730648145 94 95 124 0.49111778773902315 19 393 7 340 8 447 6 332 17 223 5 240 18 367 24 317 23 365 22 277 1 377 12 370 17 315 20 302 9 454 11 319 10 250 21 343 3 282 4 275 13 365 16 394 2 209 2 270 14 279 15 289
868 -3.8824139531049444 -0.63138949450506332 20.20397910460694 143 67 33 0.41580652452731814 23 73 24 141 1 57 11 61
867 -1.9354341242466753 -0.83627863402767644 24.69229070059162 112 103 83 0.78165952594322996 19 64 1 56
866 -4.8500340736782439 -0.82749932041852015 19.144469004174098 125 64 44 0.89504753166607232 19 59 1 54 12 61 9 268 11 50 21 35
468 -4.6821082864540093 -2.4820224657058394 19.47749273647629 190 132 119 0.16730036209824295 8 27 17 127 5 27 18 19
68 1.9653909837134469 -2.0389143450442559 23.950395516838515 140 134 118 0.47906514375320947 19 377 7 315 6 307 5 370 24 384 23 352 22 394 1 356 12 413 18 345 17 411 20 354 9 507 9 548 10 382 21 326 25 397 3 326 4 386 13 346 16 376 2 324 14 407 15 350
865 -4.3518557140044303 -0.99458459114188991 19.222976159951855 79 42 49 0.15749713077049257 23 61 1 51 20 56 9 77 11 46
59 -1.4840204191856441 -3.7885739738006379 23.688854678566347 178 121 91 0.56540683874560349 19 351 7 380 8 478 6 426 17 403 5 348 24 424 22 314 1 403 12 396 20 392 9 486 11 353 10 365 21 371 25 384 3 371 4 316 13 316 16 418 2 370 14 311
856 -5.9135643016889947 -3.1970626540632336 21.794757388174542 114 106 83 1.74921600794068 5 288 24 9 1 2 12 7 9 12 11 126 13 6 2 10
65 1.9247439878685753 -2.9645375783173131 23.979917705205914 101 95 79 0.55882282675578199 19 361 7 385 8 418 17 346 5 359 18 338 23 337 6 299 22 331 1 347 12 403 20 399 9 495 9 543 11 422 10 372 21 310 25 332 3 377 4 380 13 329 16 357 2 314 14 399 15 395
862 -3.9410123656321185 -1.4079748669828935 19.044606769049512 106 107 112 0.95786250016892605 22 40 1 42 25 43 9 159
67 2.4749161996861848 -3.011394585176101 24.173628627866666 187 175 154 0.60931753021987212 19 363 7 305 8 419 6 430 19 465 17 348 5 417 18 334 24 429 23 338 22 384 1 349 1 465 12 405 12 454 20 343 11 363 10 307 21 311 25 333 3 378 4 381 13 397 2 381 2 415
864 -4.0762416169378097 -1.1503357791357116 20.380723795944739 95 35 25 0.1317840553420257 23 63 1 47 12 57 20 54
61 -0.93544756165305532 -3.8372881810768629 23.718494802007545 181 121 93 0.45615766855250306 19 353 7 297 8 409 6 373 17 273 5 350 24 355 23 259 22 315 1 339 12 318 20 333 9 406 11 355 10 213 21 293 25 318 3 242 4 317 13 252 16 340 2 296 14 239 15 319
855 -5.3870862579161569 -1.4164608465223976 19.222038765240807 108 105 113 1.3940812795642901 6 50 18 49 7 49 17 41 23 45 22 32 17 37 23 43 12 38 20 48 9 154 11 33 10 96 25 35
464 -5.3068733560355374 -3.1824130894556468 22.304317564500515 190 182 166 0.94190874476346431 6 210 17 121 5 10 18 267 8 335 24 208 23 186 22 166 1 104 1 260 12 242 19 197 11 203 21 141 3 90 8 14 4 91
64 -0.89184118530856737 -2.8899344936853413 23.685366910920756 74 95 114 0.58699770872122392 19 360 7 388 8 420 6 375 17 345 5 364 18 270 24 371 23 271 22 329 1 412 12 409 20 282 9 414 10 369 21 220 25 248 3 251 4 241 13 326 16 354 2 311 14 321 15 250
861 -2.4357513460654188 -1.9674669737361021 21.506505792635767 173 161 149 1.2905435535393375 5 40 24 32 1 36
57 -0.57805438279145649 -4.2373594273312047 23.753907987514214 216 133 15 0.45971645058824334 19 349 7 375 8 407 6 367 24 354 23 329 22 310 18 262 1 337 5 284 17 270 12 316 20 266 9 403 11 351 10 288 21 291 25 316 3 240 4 312 13 250 16 260 2 294 14 310 15 238
