# 3D point list with one line of data per point:
#   POINT3D_ID, X, Y, Z, R, G, B, ERROR, TRACK[] as (IMAGE_ID, POINT2D_IDX)
# Number of points: 254, mean track length: 12.661771454795778
1960 -2.7926422171175411 3.8844469972416462 23.963627172389312 122 103 82 0.099601148454874 38 125 28 101 19 97
1953 3.0185000195730494 4.4222194656908487 24.130866922456072 246 196 25 2.4643059112623069 12 412 6 328 16 136 38 147 39 398 26 166 23 365 37 132 36 160 36 161 31 372 29 153 14 377 15 143 26 190 27 352 36 164 34 144 37 153 31 139 16 141 29 157 38 362 28 112 13 148 32 132 32 134 30 151 8 113 9 130 7 144 11 128 11 132 10 132 10 134 40 334 40 336 17 142 35 121 5 338 20 130 20 134 2 355 3 362 3 364 19 109 19 111 21 123 22 137 22 140 25 129 24 121
1952 3.9265064102677187 6.5153616329995918 24.062712341167803 79 63 59 0.35762332342232783 12 443 16 367 38 393 15 383 39 441 14 406 29 216 26 447 27 373 37 187 36 222 31 392 28 176 13 196 32 185 11 360 17 372 18 318
1949 5.0123006365028608 0.7790377690580782 22.884025949930692 223 225 231 1.5912616898365204 12 655 15 461 16 436 38 332 39 524 12 519 1 654 14 331 26 94 23 323 27 311 37 75 31 323 29 312 29 539 6 624 38 575 39 748 26 513 28 286 37 302 36 323 13 299 33 79 32 490 30 348 7 638 8 626 9 652 11 304 11 526 10 414 10 585 40 750 17 448 17 619 35 555 5 701 20 562 2 731 3 723 19 397 19 507 18 390 18 486 21 555 22 607 4 754
1948 -9.878995803012927 -0.73750855628454537 19.597873343180865 50 51 48 1.0031848423056011 12 503 6 43 38 452 15 443 1 354 14 454 23 447 27 433 37 425 29 293 12 346 23 300 28 262 13 37 13 415 33 378 30 322 30 469 30 598 7 53 8 46 8 48 9 292 11 49 11 283 10 273 17 288 35 238 2 50 19 261 18 254 25 234
1946 -0.78900799452878878 -5.4100699638816376 17.911790244701461 70 73 78 2.0741979899847016 12 20 38 12 26 13 15 247 29 9 38 11 26 11 36 8 27 14 37 11 31 11 23 13 27 15 28 10 16 10
1945 9.6687710077600215 9.3206684658215959 27.320158731730906 235 194 92 1.7437356548299314 12 269 1 292 29 235 12 268 39 454 1 291 14 252 26 291 27 386 36 245 16 239 39 264 14 251 31 405 30 254 30 255 7 216 8 195 10 215 17 242 20 330 18 186
1944 10.983472254066092 8.1536778694472662 26.322396633056677 241 201 75 1.6564451489096004 37 212 1 282 14 242 26 283 34 220 36 238 29 230 38 244 39 252 13 213 35 184 5 209 31 234 1 283 20 192 27 231 18 183 18 184 21 187
1943 1.942584115744352 -2.9683292362975049 20.366319734889643 156 156 154 1.9722694347037959 31 828 29 789 32 709 30 855
1942 -11.250967514254858 7.4441319122418808 22.22034149811503 104 105 105 1.2171182723601095 27 776 34 758 28 706 13 748 30 821 25 636
1935 -6.0526786926203773 -2.4963839700132824 27.414162167437809 138 134 129 2.2930479511168289 14 581 29 520 33 372 32 239
1934 4.8861166653226311 1.7598485926343992 23.251604051285419 240 248 246 0.23280919271220174 15 468 16 441 29 429 28 408 32 391 30 488 11 314 40 596 5 447 19 403 21 394 22 402 4 469
1933 4.8861166653226311 1.7598485926343992 23.251604051285419 240 248 246 0.23280919271220174 15 467 16 440 29 428 28 407 32 390 30 487 11 313 40 595 5 446 19 402 21 393 22 401 4 468
1932 -7.9509949398318032 -0.54193204356068136 19.728883498013715 49 53 56 0.34325041549156754 36 450 29 412 30 471 7 56 40 274
1931 -5.4359871013820209 -3.4247312006165087 21.425597637967371 62 66 59 0.35309800244987688 23 275 29 393 35 220
1930 16.108450129639373 9.9319229109192655 29.197201739836483 127 127 123 0.42427147660991399 1 476 29 359 32 319 9 232 10 219 2 428 19 208
1929 3.6733594686223925 7.350450792129557 22.466371307453954 93 87 91 0.38839001527737449 15 393 29 356 28 456 32 432 11 368 18 327
1928 7.2352588920624701 9.6264367843553735 33.26620925984529 117 111 97 0.86367162075254167 15 619 27 215 31 207 29 350 16 567
1924 -8.7005509094532432 0.017332643598610684 18.532458185714702 91 85 80 0.81365885260224113 37 293 29 301 28 273
1922 -9.634802210887127 -0.66753817288917394 19.518561472587947 111 216 201 0.57344962680244238 26 497 29 295 13 283 33 58 8 277 9 293 2 310 3 49
1919 -3.422482762693718 10.089141620504941 22.949229878270856 150 150 150 0.24979810129492841 12 289 36 255 29 250 8 212
1918 -3.4262664240502065 10.088003198886238 22.927677415362009 150 150 150 0.19350075662126021 12 290 29 249 30 434
1916 4.7860309443581164 7.973243203185306 25.135140933775183 95 92 85 1.1883137402135711 12 259 29 234 14 238
1914 -11.113145921229552 6.5265678132704563 23.138125217180971 246 214 96 1.3981965110340444 31 215 36 218 29 220 24 164 20 168
1912 13.583149880706271 7.2045814549415157 27.627192218433816 140 141 145 0.55659780551619609 26 255 31 205 29 209
1911 -7.9712016050001893 6.9868116086466543 27.395813439110842 246 200 69 0.23400798765453434 16 186 29 203
1909 12.55751133680859 5.0254336037535703 25.843020061705523 185 120 18 0.86785287893301266 1 447 38 372 39 425 29 171 32 163 5 371 13 162 4 373 20 167 24 142
1906 -6.0308346845124605 3.8885172229383107 26.911214323829853 88 94 90 1.1637977055474009 6 98 23 134 29 135 26 142 28 95 32 107
1905 -0.84597584831361472 3.5774394013956221 25.851258038415686 59 55 47 0.19566576981618963 14 351 29 127 33 124 7 113
1904 -8.1619619712990872 2.9991073417737319 22.946958725308598 240 195 68 0.83671497366772529 12 144 31 104 29 123 28 93
1902 8.1929464608128679 0.42100888679629844 23.713189361644215 108 113 112 0.28108351520822006 26 90 29 82 13 60 3 326 19 63
1898 0.037758369309710299 -5.2137609768798843 18.23168979755204 52 53 53 0.20548314120180738 36 271 29 12 30 13 24 12
1896 10.203083580913749 8.8843120635111443 26.814600799682083 237 195 84 1.3009495810594811 14 254 34 230 31 232 28 198 7 214 8 196 11 222 17 236 5 214 20 191 2 240 22 218 22 219 4 532 24 171
1893 -10.157968953080303 4.5118456774582771 23.118404443059617 230 182 60 1.4256256049563913 6 117 39 133 1 170 31 368 15 137 26 180 23 153 33 144 7 133 8 106 9 123 11 123 10 120 40 120 5 106 3 142 22 107 4 113
1891 4.5841474013882531 -4.2675694597388665 22.616926538791134 28 28 30 0.8105725843196101 15 638 16 594 14 664 26 602 15 539 23 628 27 617 34 494 37 504 36 548 31 258 23 264 27 257 29 375 13 17 13 515 17 601
1890 9.4289953273955138 10.163250760790056 25.18137673160841 156 153 151 0.30463985790872611 12 587 38 622 23 509 34 478 37 389 36 395 31 244 6 224 16 244 39 267 33 336 32 206 30 428 18 343
1888 -8.6785818967727142 -3.075422092935014 18.816530076614871 55 52 45 0.25907222116868478 12 313 6 247 16 265 38 432 15 422 36 284 31 267 14 293 26 335 28 25 13 254 33 239 7 254 9 263 10 19 40 245 17 29 35 213 5 27 20 17 3 280 24 29
1887 -8.1347674847882754 -0.120407721883944 19.892153593085325 58 58 60 2.0864613891670318 12 79 14 316 23 72 27 66 36 71 31 59 12 80 1 67 14 79 26 78 27 68 23 311 34 67 16 66 15 56 36 72 31 60 29 70 29 71 28 49 32 66 30 79 30 333
1886 -6.5138502971469263 -4.5476960817908667 21.981619688115376 145 147 146 0.57440251428658973 15 799 37 763 31 793
1885 4.6102155316212272 2.04171640156392 23.997291199370018 67 66 64 0.34920327819274366 23 777 26 841 34 724 37 723 31 761 29 721 28 677 13 717 32 651 30 813 25 619 24 576
1884 -6.7578991311155958 1.0519179371040643 22.216513032464544 248 248 249 0.39730412332111359 12 870 31 723 28 637 33 607 30 744 40 803 24 423
1883 1.8582367909555741 5.5767537227894612 23.864981504712812 84 84 81 0.97261231125866876 34 574 31 688 13 575 7 578 25 382 24 364
1882 2.7875423806091684 4.7169158960450153 23.767219494927279 240 201 59 0.3504135627094262 27 665 31 686 28 594
1881 -11.847361490698457 5.5468783277049196 19.701536482050145 54 54 54 0.51578192101207998 14 726 31 623 32 510 30 646
1879 -4.3114937462175194 1.1682136114065942 19.894374358357123 121 111 106 1.5794862328520092 23 570 37 546 31 582 36 467 23 461 34 88
1878 4.7042411777380968 -0.026345969185819072 23.767739735552624 114 113 109 0.98810330317191652 26 634 27 648 34 530 31 577 33 381 30 686 24 328 25 243
1877 -9.7536751422571459 -1.8948000593810026 18.864417106803575 33 38 38 0.18611529096383711 34 513 31 560 36 432 37 523 28 382 13 403 33 365 32 355
1876 -2.940768435596707 9.5982503377383903 25.574978486916986 118 118 120 0.24825251340299581 38 410 31 536 13 376 8 376 9 230 17 238 2 403 3 406 22 345 4 389
1875 3.6346988857527678 9.1777145022611144 27.887196749410812 124 125 127 0.35881575686337286 23 613 34 470 36 233 31 529
1872 -2.6430531371376942 2.1786749561819674 26.420709819181042 119 111 100 1.682388417007773 27 327 37 552 31 471 28 291 13 307 32 491
1870 3.3141663764925191 6.6111058258917366 24.829038730542639 94 94 97 0.50957998950312577 36 221 31 391 30 211
1869 -9.3442473971794549 4.2457972766079717 23.477721880854038 237 193 56 0.35938522810367374 14 152 34 333 31 370 29 148 30 388 40 115 2 121
1868 7.4522318239143237 4.428827010892074 26.039688506025374 214 157 29 1.1255173279840855 12 167 31 360 30 373 40 138
1865 -5.72497432780757 0.089968846476939646 22.490670597332958 168 168 170 0.88764019010240802 23 313 37 294 31 312 11 293
1862 -6.6110430025102156 -2.7650955000294881 22.129635338671861 78 59 40 0.34639435695518184 26 354 34 269 36 302 37 272 31 279 13 266 33 364 32 352
1860 -0.034472564872120644 9.7958606539745823 25.273033455477933 143 144 146 0.39116217080113314 12 280 31 241 13 231 17 240 4 214
1837 -7.0482404443875302 -0.17430485225639622 22.271636512920502 154 159 146 0.18270375782557502 23 60 34 69 37 61 31 62 13 49 32 60 30 334 25 61
1824 -6.0539883113681423 -2.174290555320241 14.732724896121585 49 49 47 2.5686856848763635 27 41 37 261 36 288 26 34
1795 -13.693169661917041 10.27884258241137 19.738688546818985 76 75 73 0.55971090582252592 15 411 36 259 38 419 28 360 32 334 9 242 25 313
1731 5.1800657718310124 1.7621583048147649 23.24751846516715 50 49 47 0.18123132940668096 6 80 37 87 30 100
1704 -3.5157361876929838 -5.1307213264075884 19.066310131100892 143 143 141 1.2511167355599213 15 750 38 750 34 714 37 742 36 733 13 701 7 729 8 727 11 680 17 694 5 724 20 663
1672 12.131684749485672 8.1100584133928315 27.601227693424725 234 194 90 2.4119875055512416 15 216 34 219 38 227 18 177 31 223
1621 -9.26780534552619 5.4520202371203812 22.872621328167948 194 168 136 0.312721063262277 15 610 27 590 12 771 34 649 29 574 29 575 27 589 28 523 30 705 40 622 17 571 2 604 3 612 22 418 24 441
1603 6.1859555033118081 0.14617386623330683 22.102971167152045 114 115 110 1.3583047797014833 16 298 23 82 31 64
1594 12.282666424785793 6.9294952786326514 26.43117630570395 243 200 86 1.9803762801669023 6 201 27 207 34 194 15 200 14 220 37 194 37 195 31 204 16 208 9 208 9 209 11 202 11 203 12 245 10 201 19 175 21 328
1591 -12.806161968848476 7.2113437094207447 27.201733775760555 251 209 73 1.2666940804646394 14 213 38 188 27 198
1590 -10.811403070012334 5.721471042367126 22.668326481671443 115 99 73 1.1461146755865264 12 229 27 194 15 186
1589 -7.0767829202598973 6.0166263279741639 27.288421432207855 88 74 52 1.4419391019666381 39 411 27 185 7 162 10 155 20 157 3 370 22 306
1585 9.2198274609849857 4.3705690610869841 24.99780246808438 96 86 68 0.86783446617140692 16 155 27 156 36 185 11 332 10 150 40 362 7 157 17 345 35 128 19 117
1584 4.054726059452423 4.3447673853655999 24.125839212022509 253 241 203 0.12281968227181414 39 142 27 146 17 145 5 129
1582 -7.7934722301872821 2.8653648408639416 22.32304302484194 127 99 67 0.57001255191603917 14 129 26 139 27 118 36 126 37 325 31 105 29 124 28 297 13 312 32 97
1581 -1.6405161964214781 2.8645061413156183 25.665082134289193 52 53 48 0.15228029523671682 14 123 38 96 27 113 37 107 19 90 18 80
1580 -6.692277180373341 2.0781900085780363 24.698444966389964 217 162 36 2.0854508305478325 14 107 15 86 27 93 37 92 36 120 7 89 8 73 10 84 40 79 17 89 20 88 2 78 18 71
1578 -6.7462246279546685 1.4900278715564406 23.288454413277119 160 118 70 0.3550379938145839 23 101 27 82 37 82 29 97 13 88
1576 -3.8416470501004731 0.15277327371800736 22.670010234096157 228 246 240 0.24082754238731999 12 83 14 88 15 61 27 71 34 73 37 67 36 83 26 86 33 72 7 66 5 289 2 320 18 48 22 267 25 64
1574 -9.2239729863735427 -2.0024737399184751 19.0822027752209 39 41 34 0.16436387786185594 23 43 27 49 29 39 30 48
1573 -8.0436052457817873 -2.4609081819930543 19.08181512643991 39 169 62 0.20415301562618637 1 43 36 32 14 296 28 28 32 30
1572 -6.0623524370951944 -3.4987489596179939 21.075894957595729 148 146 147 0.62418223127937356 12 315 14 288 15 28 16 28 38 25 27 37 11 22 17 33 39 21 1 32
1570 -9.6247483425757405 -2.9528558201355035 18.757564890482378 217 174 170 0.26318339105326843 39 25 27 32 33 37 30 37 35 19 25 23
1569 -2.9613043291184771 -5.189456340660918 18.584994189527713 40 40 40 0.21319574597285251 12 22 27 17 29 14
1565 -2.7428129530819603 -5.1045073177243241 18.525760110603905 41 41 43 0.65540898518435264 15 12 38 15 23 17 14 276 23 256 27 252 8 5 9 14 5 12 35 8 2 14 3 270 4 9 25 9 24 13
1564 -9.8652989774686155 3.6634285197243415 23.178520036738483 106 100 95 1.609030849777467 12 759 39 681 38 598 1 762 23 584 15 345 38 489 26 418 27 568 34 551 37 564 36 594 31 358 31 490 29 560 28 424 13 453 33 405 32 402 32 494 30 374 36 141 37 121 7 709 11 329 10 108 10 523 17 626 19 419 18 286 21 410 25 110 24 252
1563 -6.4999964235772474 -0.59909195602656118 22.043585028847389 246 181 17 1.969040814652022 16 428 26 505 23 308 12 814 6 684 38 657 15 658 1 810 14 763 23 560 34 281 37 291 37 633 36 313 36 452 29 298 28 270 28 396 13 291 32 251 32 373 30 327 7 634 8 620 9 645 11 602 10 582 17 614 35 549 20 559 19 587 18 556 21 550
1562 8.9487581717999323 4.4267084891335315 24.797925375853097 122 102 91 1.0582237402496399 12 553 16 456 38 495 15 488 39 564 1 569 26 547 23 372 15 132 38 130 39 144 27 470 37 465 36 498 31 361 28 127 13 470 14 627 33 408 32 415 30 155 7 476 8 462 9 491 11 464 40 627 17 487 35 411 5 585 20 428 2 379 3 392 19 437 18 427 4 611
1559 1.3212368590006995 -3.7621279882532086 24.87102100977593 155 157 156 1.5922516479355928 12 967 15 856 23 829 27 805 34 796 37 800 36 827 13 789 25 675 24 631
1558 -10.74605246466418 -1.7527636864642688 18.887681506018662 124 124 122 1.3719332206380599 26 875 23 790 36 782 4 747
1557 -7.3274979012428432 -7.3506146811620861 21.148181817223421 138 138 137 1.8546908810978933 6 706 23 785 31 792 28 709 7 726 9 725 40 784 5 685 40 734 21 597 3 644 22 534 4 541
1555 -7.5823113190909774 -2.5447577630271332 23.595018403335839 92 94 92 1.0425672062095044 26 863 23 745 27 733 34 719 37 718 36 740 29 715 31 716 28 671 13 710 33 604 33 638 32 644
1554 -5.5807976769068279 -1.9890567632058105 21.701113494452049 253 224 41 0.48695491493125814 16 659 38 707 23 700 27 693 11 651 25 565
1552 3.3554183849191803 6.6862689918324945 26.015386038060921 93 92 90 1.1871557824415733 38 684 23 667 12 836 14 782 15 683 16 564 27 670 34 652 37 651 29 650 28 599 13 577 33 519 32 431
1551 -3.1349715629791097 3.5276533696507868 23.934936095430427 105 106 99 2.0138971107579562 12 675 16 552 15 594 38 592 34 552 31 596 13 319 30 618 35 271 14 619 24 339
1538 -6.2106751869640542 -6.1740451033867734 20.873919302798811 139 139 139 1.6795989353212353 26 698 23 524 27 612 36 628 13 598 25 500 24 386
1520 4.7503051837867956 7.8871357093607424 34.270607224316457 120 119 117 0.29375748618297953 26 224 23 384 29 191 27 482 34 458 36 506 37 479 33 190 32 167
1510 -10.121849151048389 -1.3251211687698636 19.369393046308961 30 32 32 0.28873520741404973 26 361 23 292 27 282 11 43 8 36 9 55
1504 -12.197293977045467 8.6240405348238109 23.050821306600209 225 167 50 1.9047807286910592 26 294 23 244 34 235 29 241 32 201 9 220 8 191 32 202 11 372 40 198 17 217
1463 -5.7410875960780352 -3.6775356183920551 21.500477138570794 66 70 73 0.66042248432967754 12 930 16 744 26 874 23 788 27 771 34 763 37 765 36 781 31 796 29 756 28 712 13 753 33 678 32 675 30 824 11 723 35 671 4 795 25 628 24 586
1429 -7.5955640094214045 -3.5350423434665421 18.69189540427227 40 41 43 0.307635449789118 14 662 26 603 27 515 31 552 29 505 33 357 32 459 30 568 35 449
1428 4.2189854205848523 -4.3268753969930671 20.769964270543738 136 142 154 0.14378783799972325 12 603 15 533 26 598 36 540
1408 8.0586443028313592 3.6130499226228867 25.425993249300163 84 51 29 0.20656869392163435 12 388 14 495 15 337 38 348 26 535 23 475 27 336 34 326 37 330 36 343 31 485 29 327 28 308 13 324 33 128 32 102 30 503 25 269 24 245
1407 2.3798954264284182 3.1744336218445048 24.297110543752581 236 244 231 0.43010023315006568 16 329 26 531 8 443 2 588 19 413
1402 -8.332731358795721 0.73002107948444306 20.800297708456544 76 81 87 0.38887612098328062 1 544 26 515 36 465 12 651 28 400 32 378 35 247 21 240 2 467 22 266
1390 7.561229429824559 8.1571672721489001 25.90877557551887 109 107 111 0.49107768769377225 14 240 26 454 37 216 31 228
1387 3.8915334806350255 4.0605242613206824 24.685918103635125 113 84 61 0.23098840918556163 1 415 39 399 26 421 23 137 34 128 37 342 36 347 31 359 29 137 28 104 13 122 33 298 30 140 8 329 9 131 17 143 35 275 25 114 24 104
1377 -10.450273661908199 -1.6025838657443414 19.938805973879145 121 122 122 0.4921713849543895 15 435 16 413 26 359 12 623 14 571 27 52 11 407 17 420 19 378 18 236
1370 -6.3480253340101784 -7.2865122103786719 20.466721208665458 45 46 48 0.22011062670348738 15 0 38 1 26 310 36 3 28 4 33 6 30 271 25 0
1367 -6.0776066395647597 9.8285634166423073 23.340131641036525 126 126 126 0.42235256061174781 15 404 38 414 26 296 23 418 27 243 34 384 37 388 31 247 28 356 33 339 9 233 17 248 3 238 19 345 25 192 24 185
1364 -10.988667075512803 8.7377910010531572 26.314726199419532 111 92 70 0.49451544765793837 16 232 26 289 27 380
1360 6.6764993226944398 6.6176558775436458 24.522739492520586 57 54 45 0.56541950802229812 14 226 26 268 23 207 37 188 31 210 30 407 22 192 24 165
1359 7.1287749710397383 7.9266055000956346 27.500775848253852 115 102 97 0.87180683944514137 12 251 26 267 31 209 33 206
1344 -7.3299056623270555 4.7715821248650832 23.772667441989707 231 184 61 1.1348580857769672 16 160 26 185 15 138 38 144 27 160 8 125 3 144 22 119
1332 4.4215730208538488 2.2986260233269982 24.314998061168058 44 45 47 0.21080784489864018 1 119 26 123 23 333 37 100
1330 -1.8957905400258912 2.2424449270571718 26.709642220450164 59 54 47 0.13300291382969753 14 110 26 119 23 114 27 97 37 99 31 94 28 72 13 96 30 111 35 85
1323 -7.8510997364802027 0.25321913418072411 22.715988132409496 47 49 46 0.2060072453098119 12 357 15 302 26 83 7 64
1320 -8.0056934624964811 -0.12169751149403527 19.741235934143216 57 58 59 0.0090480810839357953 14 80 26 77
1302 -1.2143045437313145 -4.4217466531012519 14.496531920522221 73 75 80 1.5035864038148155 12 19 15 5 26 12 31 10
1295 4.6244239556832119 4.6478886634192573 24.147979938534807 165 157 140 0.41632373977634757 6 154 15 156 39 165 1 195 27 174 31 157
1288 3.7575436313017638 7.9291710584855117 22.910794744589118 41 42 44 0.22005365008832597 6 490 39 457 1 480 14 419 12 455 16 377 38 407 15 394 26 457 23 414 27 384 34 377 37 381 36 386 31 402 29 237 28 196 13 372 33 328 30 259 7 380 8 480 9 503 11 375 7 381 8 481 9 502 10 357 40 541 17 383 35 323 20 441 19 339 18 328
1271 -8.3118133054808467 7.3071895614790963 26.515260551838228 254 216 95 1.4211061198594321 1 696 14 640 26 679 23 606 34 578 37 588 13 580 30 640 9 496 20 437 2 611 3 622 18 523 21 434
1230 4.432235534675697 5.9376497922237421 25.78821305326252 105 90 65 0.33836149430517809 1 213 14 201 7 172
1205 -9.1636549122716637 -0.94603952005327785 19.557758652529294 235 132 40 0.19378856290223384 39 331 14 67 37 51 36 50 29 55 40 49 25 46
1200 2.9091591069768117 -4.9283518810267397 21.749805534199123 149 156 164 0.30127424744267811 1 321 14 20 26 19 23 25 34 17 37 22 36 16 28 14 7 17 10 9 2 15 21 20
1192 7.1908433535283232 1.1245502948546542 23.312789844214251 244 204 86 1.3127131400958367 6 60 1 86 12 101 38 74 39 75 14 95 23 96 27 319 7 85 8 65 8 66 10 79 17 80 20 79 2 83 3 99
1187 3.1994995565270767 -0.17837892958710924 23.176059769740604 249 211 57 0.92405106227343659 12 914 15 808 16 746 38 803 1 901 14 851 26 878 34 767 37 767 36 785 29 761 13 736 33 660 30 828 9 773 18 661 25 631 24 588
1161 5.6347835975652281 0.56969344341837735 23.47946436581962 113 114 110 1.3459421721480664 16 297 38 464 26 514 27 543 37 439 29 307 7 292 9 457 10 288 35 371 5 437 20 390 2 572 3 479 40 73 22 66 4 462
1153 -3.1813852001721519 9.9659030754647056 23.526512003954949 144 144 144 0.32360348899644509 15 516 16 384 1 599 31 414 13 381 33 341 30 544 7 389 17 254 5 386 2 422
1119 12.66855507533273 2.7651942847027042 24.791834502778165 53 57 57 0.36727731274753417 38 345 1 404 37 322
1112 -9.2016948625456312 -2.5635660891626233 18.891563952405772 50 49 62 0.28518559395771198 12 318 38 287 1 337 15 426 16 270 14 442 26 342 23 280 27 411 37 268 36 29 6 24 31 271 29 278 28 245 13 263 33 247 32 235 30 452 7 257 9 269 11 267 40 36 17 38 35 27 20 26 3 27 19 245 18 21 2 27 4 40 25 27 24 208
1105 -2.1711442714388602 -6.1405154824601889 18.651215633785846 53 54 56 0.35290762460783526 15 2 1 311 14 5 26 3 7 240 11 6 40 228 35 5 5 9 20 5 2 5 3 261 21 8
1090 -8.6342749045277944 5.6482832618193042 23.159899256378605 114 94 74 0.4040299377653423 15 180 16 185 38 194 1 222 14 207 26 238 34 179 37 178 29 202 13 355 33 187 30 405 10 172 40 346 19 148 21 137
1088 -10.477268179533514 5.6187201065109234 23.07454772738302 253 208 93 1.7007835881037501 12 230 39 185 1 220 9 169 8 145 10 170 40 140 28 160 11 163 35 145 35 146 7 160 17 174 18 135
1078 3.9685679426981779 5.076170814663489 24.803432747558119 241 211 163 0.90743408482206966 12 212 39 155 1 187 14 181 23 162 27 168 31 173 30 173 11 156 10 327 35 138 4 359
1074 -7.1353981430642417 4.706415418458894 26.590585673771375 234 182 48 0.13051873089597721 15 126 1 162 9 126 35 107
1068 0.96247230940590778 3.7240637227175704 24.608822358219175 213 159 14 0.12910350178141594 16 110 1 135 14 133 3 134
1592 6.764683123730113 6.8994832110123516 25.593307831807071 98 84 71 1.6850632369538923 38 209 27 203 30 212
795 12.695852694501445 3.5223255588754148 25.114463671299571 30 31 29 0.078684992027248157 12 158 39 129
1588 6.8305421579449934 4.7792166218279624 24.031606581069536 243 229 229 0.36867562657371911 12 216 15 177 27 180 9 168 40 169 20 166 3 192 4 177
791 -10.315317714591544 3.5916095700063759 21.456369748034106 227 174 79 1.8317747462935343 15 123 39 117 26 159 2 120
1583 12.696416035226742 4.0148532601423303 25.397718438499513 94 65 59 1.1413815362634139 39 146 27 138 7 132 40 153 17 149 5 136 40 344 3 186 22 166 4 181
786 -10.734089200368377 2.7264615633495075 19.321734258466439 86 87 89 0.36621938701505441 16 325 39 107 14 348 31 345
1575 -7.3834543168701696 -0.90609689987062014 19.593481107747952 70 74 77 0.60707770308051934 39 54 27 58 29 58 34 52 36 54 23 50
778 -4.0671550883334389 1.6306997153072669 22.971473686542449 249 187 8 0.7209666940879409 16 87 38 79 39 83 15 317 12 119 15 89 1 107 14 108 26 111 27 96 34 100 16 88 37 84 36 112 29 100 28 71 13 94 33 101 32 84 7 80 8 70 40 82 3 89 18 57 4 73 25 90
1571 -6.0752293696624999 -3.5423515978237856 21.142979205424421 148 146 147 0.83838811680977487 12 316 14 287 15 27 16 27 38 26 27 36 30 33 11 23 17 34
774 5.7881650405052074 1.2558294242686809 23.619466848278485 64 60 59 0.23075241967571958 12 96 16 83 39 73 1 97 14 103 23 94 32 79 7 83 8 71 10 76
1568 -7.5221753217291072 -7.9287388826690286 21.437006149041022 140 140 140 0.34689529856322204 14 4 27 3 34 246 23 424 33 5 8 233 9 6
771 -7.3714132870639464 0.029973377747300613 22.336516753669848 82 82 81 0.11922116036191778 12 349 16 68 39 62 1 69 26 82 18 39
1566 -11.167843030047127 5.6675169560524701 20.264175898086371 103 107 99 1.729384881577527 12 901 16 721 38 791 34 729 37 727 36 757 27 766 23 783 29 729 28 682 33 649 32 657
769 -5.3617228050135584 -0.34946490176420891 22.188161952245618 218 219 207 0.28338774692289576 12 76 39 58 1 63 36 78 29 65 28 47 30 329 10 55 24 64
764 -8.1068716020065672 -0.96743454211709667 19.656796132566463 246 249 255 0.20937902086099908 12 340 15 50 39 50 36 52 30 70 17 58 35 52 5 48 2 53
1556 -7.9737917711120261 1.9065149163495985 23.080635609902526 104 105 94 1.8142468937349785 12 897 14 841 16 711 23 775 27 738 33 644 32 649 7 701 6 687 8 675 40 752 35 609 20 606 19 631 21 557
759 -8.5190684138950523 -3.5429441121823193 23.619302105097056 124 124 122 0.21074751306237682 12 322 39 30 15 269 16 272 38 290 14 33 9 266 17 30
1553 -7.5279144696210443 -2.2172653665227231 19.333685930096554 39 39 42 0.44751527234590011 1 803 23 696 37 620 36 644
756 6.225977037495003 -3.878791859997766 20.669682240166633 94 97 101 0.33091536878223005 12 39 38 21 39 19 1 323 36 19 29 25 10 14 40 242 35 17 5 23 2 268 3 276 19 13 22 23 4 24
751 -1.9229842140177384 -5.6396788700721459 18.76686825022902 33 33 31 0.22843052363863822 38 9 39 6 23 6 31 9 28 7 19 8
749 -8.1838523292349716 -8.2459476689486149 22.182792667945101 134 134 131 0.28783104885853505 16 251 39 2 27 2 37 4 29 1 25 205 24 2
732 3.59399094877294 -3.7901796844567013 22.210600456079121 158 158 156 1.0636023454104941 6 734 15 780 39 868 14 848 26 858 23 787 34 740 34 762 36 766 36 780 29 710 13 732 7 780 8 742 9 752 11 708 10 700 40 851 17 719 17 733 35 650 5 766 20 667 2 811 3 798 19 657 18 658 21 657 22 655 4 794 24 587
721 -5.651772928267139 10.308552413656466 21.429036425008384 145 144 142 0.15826556697755365 6 591 15 519 39 593 7 227 9 509 11 486 40 547 17 392 35 432 5 391 2 528 19 348 21 338
712 5.5168864287456758 5.025252189406495 24.215381371311182 240 236 224 0.15440865995967665 12 215 16 171 15 368 39 180 1 446 14 392 26 229 23 382 37 172 31 378 29 185 28 141 13 158 30 180 9 368 6 166 11 159 10 164 40 368 17 356 5 365 20 299 2 377 3 389 19 322 18 307 21 302 22 329 4 365 25 145
692 -8.165264520434846 6.3699264690858808 26.910900291314721 205 212 200 0.6203383375727165 6 163 15 181 1 450 14 398 27 370 34 180 37 363 36 364 13 186 33 188 7 355 8 340 9 172 11 166 40 348 17 349 35 294 5 127 20 291 3 169 21 138 22 151 4 331
655 3.8860204730971106 6.8966658970684689 22.5991641990374 61 61 59 0.38892407060484185 16 372 38 400 15 220 16 226 26 452 23 408 27 378 34 372 37 374 36 230 31 218 29 226 28 343 13 210 33 209 32 193 30 243 11 209 18 172
648 -9.1127142285321323 4.8715382861392138 22.849230073890855 160 133 112 0.11344278787848666 12 206 16 157 38 163 15 161 39 150 1 173 14 191 26 215 23 181 27 183 34 166 31 166 30 195 7 136 8 123 9 141 11 148 5 116 2 143
639 12.822648164435865 3.8000102415691215 25.341564609873867 48 47 45 0.62539846044712943 16 626 38 670 14 710 27 661 34 642 28 591 13 633 32 568 7 712 8 636 9 709 11 617 10 601 40 763 20 621 2 783 3 769 5 745 19 603 18 571 4 757 25 464
635 -2.9126008375298298 -5.7150667162547952 18.647462223024107 149 151 150 0.44132463822786133 6 503 38 627 39 602 1 717 14 538 26 696 23 521 27 503 34 489 36 535 31 635 29 494 28 555 13 507 32 531 30 655 7 508 8 498 9 516 11 491 10 474 40 551 17 506 35 439 5 397 2 534 3 430 19 473 18 453 21 346 22 358 4 412 25 412 24 387
626 -3.457131181651047 2.911116009428941 23.521716318769457 126 107 87 0.8445441419777685 6 86 14 343 26 143 34 315 28 85 40 309 3 113
619 -6.650239935515156 3.2003949338261051 26.206915960847091 231 174 24 1.2814264834169713 6 302 38 342 39 376 1 396 27 331 36 338 33 116 32 270 21 90 25 102 24 93
587 10.865772213668007 2.9486536002932993 27.778592007646857 131 130 128 1.2842981540798182 12 874 16 713 38 765 15 762 26 802 27 707 36 666 33 615 32 615
581 12.106387158658896 6.8289867168303315 26.466362629227795 230 167 2 0.31508244650442629 12 839 16 687 38 734 28 655 8 690 11 668 10 665 25 582
574 -11.602397591688344 7.3263500121127096 21.747545861455411 107 110 105 1.4324083840991264 6 655 12 707 16 639 38 613 15 624 39 825 1 835 14 647 13 651 34 705 33 656 30 770 7 586 7 718 8 473 8 651 8 692 9 675 9 716 11 631 10 619 40 530 40 721 5 590 2 699 3 624 18 528 18 652 4 510 4 613 25 542 24 557 25 591
561 7.9606362484433477 1.1819978875160202 24.341600531815757 249 208 44 0.66728996331987012 12 657 16 533 23 567 37 544 36 580 31 580 29 541 28 495
549 6.7623474881170811 8.373028193618909 26.517128297749952 126 111 114 0.28512950244107471 12 449 16 373 38 401 15 391 14 526 26 578 23 411 27 497 34 471 37 491 36 521 31 530 29 357 28 348 13 491 33 324 32 315 30 418 25 298 24 290
542 10.334103609462931 3.6363949019611459 24.754358771400252 132 116 106 1.3506549247319459 12 393 16 330 38 352 15 339 14 496 26 415 34 330 29 329 28 317 39 550 32 279 30 371 7 327 11 326 40 500 4 608
541 7.5995369755140922 0.48013128421258949 23.543048286710704 130 137 147 0.21893775482502395 12 361 16 300 38 327 15 311 39 361 1 373 14 324 26 95 23 83 27 302 37 69 36 86 31 67 29 79 28 56 13 58 33 82 7 69 8 58 9 76 11 62 40 288 17 72 35 251 5 294 3 78 19 62 18 51 21 59 22 67 4 290
540 16.053482667726854 9.9580485988321197 28.627604775156819 160 160 160 0.44609538786165337 12 274 16 240 1 297 2 244
537 -11.821003980701528 6.8596107882617883 21.45881654027901 129 110 95 0.29518400823770646 12 265 16 221 38 232 39 233 1 472 13 214 7 191 8 170 9 199 11 204 20 175 2 387 19 177 18 163 22 169 4 354
536 -11.821003980701528 6.8596107882617883 21.45881654027901 129 110 95 0.29518400823770646 12 264 16 220 38 233 39 232 1 471 13 215 7 192 8 171 9 200 11 205 20 176 2 386 19 178 18 164 22 170 4 355
518 -12.060317103190972 9.5672839303844945 23.745729837501457 124 122 125 0.2979604177612642 6 370 12 464 16 379 38 413 15 402 39 461 1 484 14 532 26 582 27 389 34 383 36 391 31 537 29 363 13 377 33 215 32 320 30 542 7 384 8 378 9 402 11 229 10 363 40 392 17 384 35 321 2 217 3 402 19 202 21 324 24 294
2111 -5.8906647425443222 9.6500451567298349 25.244785486848155 129 129 130 0.21426738236329676 12 712 32 435 22 344
514 5.5965878658819426 1.095816906693337 24.761544692817147 121 124 129 1.4368360151668205 6 797 12 964 16 793 38 847 15 853 39 938 26 920 23 827 34 794 37 798 36 821 7 825 8 791 9 821 11 758 10 763 40 884 17 773 5 819 20 725 2 865 3 847 19 725 18 709 21 707 25 669 24 626
510 -10.598757500823018 7.2955434672321564 23.713474064955292 112 109 109 0.9759802668258214 6 769 16 771 38 825 15 829 1 919 26 899 23 807 30 833 7 799 8 764 9 798 11 744 10 742 40 861 17 755 5 790 20 706 2 836 3 818 19 708 21 684 22 675 4 820
2107 3.9373458595229223 3.0542183428343121 24.48421756901481 66 66 66 0.72522288596717588 1 399 32 275 10 308 19 290 25 104
508 -9.2567179518790663 4.8831600443522101 23.56118129002963 244 203 37 0.49259971725606017 6 765 12 948 16 767 38 824 15 828 39 915 1 932 14 886 26 896 23 804 27 782 34 776 37 779 36 796 31 810 29 770 28 725 13 773 33 690 32 692 30 841 7 796 8 761 9 795 11 742 10 740 17 751 35 689 20 704 19 705 18 692 21 680 25 644 24 603
2104 11.711419669538067 1.2867449843553154 25.90081484564012 175 176 179 1.7881665917426453 6 434 17 450 22 405 2 579 4 584
507 -9.1578755187461507 4.8149186700819646 23.325462996504918 244 203 37 0.47596449118825351 6 764 12 949 16 766 38 823 15 827 39 914 1 933 14 887 26 897 23 805 27 783 7 795 8 760 9 794 11 743 10 741 40 857 17 752 35 688 5 785 20 703 2 831 3 814 19 706 18 693 21 679 22 662 4 816
500 1.024078120310822 3.0559097730347431 24.49344535600612 119 115 113 1.2119483149147698 6 722 12 918 16 734 38 807 15 812 39 895 1 905 14 856 26 868 23 780 27 759 34 751 37 754 36 774 31 786 31 801 29 763 28 700 13 742 33 665 32 668 30 790 30 830 7 708 8 683 9 738 11 714 10 710 40 828 17 723 35 659 5 742 20 648 2 797 3 787 19 664 18 639 21 566 22 493 22 628 4 776 25 621 24 578
493 -10.139889998079926 5.6055763483192731 22.51767218880093 187 136 31 0.95374829854817555 6 726 16 719 14 817 34 697 37 698 28 653 8 720 11 695 10 662 20 625 2 782 18 620 21 616 24 512
2089 3.8538705329669192 -0.79096455788171793 23.093623606319522 249 207 38 1.2920747227462148 6 274 39 339 1 358 26 374 23 304 31 295 28 44 33 259 12 644 38 454 39 513 1 642 14 590 26 624 23 452 27 437 34 419 37 431 36 453 31 458 29 410 28 392 13 425 33 377 32 371 30 468 7 432 9 298 11 51 11 421 10 406 40 459 35 54 5 286 5 548 2 316 2 465 3 313 19 392 18 36 18 384 21 380 22 264 4 281 24 223
492 -10.139889998079926 5.6055763483192731 22.51767218880093 187 136 31 0.95374829854817555 6 727 16 718 14 816 34 696 37 697 28 652 8 721 11 694 10 661 20 624 2 781 18 619 21 615 24 511
489 -8.7321209238945787 1.6133765270064711 23.311980492809131 164 156 154 1.3860038784638182 6 715 12 869 16 710 38 763 15 761 39 849 1 858 14 840 26 839 23 750 27 737 34 681 36 711 31 759 29 685 29 719 28 640 33 610 32 608 32 648 7 743 8 713 9 734 11 689 10 686 17 705 35 639 5 738 20 605 20 646 2 730 19 628 18 637 21 609 22 554 25 570 24 537
2086 -8.5441247368386897 1.4702727623317404 20.919291064766671 232 186 55 2.4143786782973762 31 83 13 87 28 66 33 96 28 67 36 96
1286 -7.4804891281855346 4.6928992675056023 24.377346982828985 90 80 53 1.5463574430752118 12 179 6 122 38 143 1 159 39 137 14 154 38 141 39 138 12 408 1 157 26 183 27 140 34 135 34 137 37 145 37 350 31 131 29 177 13 135 33 149 10 125 40 123 17 136 35 113 5 109 5 110 20 119 2 129 3 143 21 100
482 -8.5241501412674374 8.8955541612826572 27.447328404288854 141 144 143 1.0732948596004914 6 699 12 844 16 689 38 739 15 737 39 822 26 817 23 728 37 657 36 681 31 691 31 740 29 656 28 604 13 648 33 588 32 582 7 720 8 693 9 717 11 671 10 668 40 769 17 651 10 621 35 581 20 586 2 751 3 743 19 647 18 625 21 620 22 618 25 480 24 518
2074 12.24351255619858 2.1751561960703101 24.574097770828093 60 58 71 0.54196790896049241 12 376 39 375 33 107 8 311 6 441 9 330 11 87 6 306 10 95 40 482 17 319 35 270 5 325 18 82 22 289 4 486
477 -10.281413135715532 4.9815619676904603 23.21312694524703 108 103 99 0.59214322070248138 6 637 12 833 16 680 38 728 15 733 39 765 1 824 14 778 26 809 23 723 27 712 34 693 37 694 36 719 31 764 34 727 23 752 29 694 28 650 13 718 33 618 32 621 30 758 7 653 8 637 9 661 11 666 10 602 40 619 17 634 35 566 5 655 20 575 2 685 3 604 19 604 18 617 21 567 22 494 4 592 25 622
476 -6.9604218918513876 4.9071738100408497 26.869038615208094 233 189 17 1.5489408050829858 6 725 16 679 38 726 15 731 39 813 14 813 23 721 34 692 32 619 7 747 8 716 17 680 20 650 19 666 18 641 25 466
2072 -5.082659987257145 -0.18321634538584025 21.980570482876036 217 250 255 0.14704388382572961 13 50 33 70 32 61 25 59
2069 -9.6596693271794134 -2.9617260164989729 18.837008861521003 213 169 163 0.24689383623547698 27 33 33 38 30 38 35 20
472 3.3438412063512239 1.6314738780475153 23.886335378496444 120 120 120 0.76178922106184499 6 717 12 822 16 668 38 714 15 664 39 750 1 751 14 808 26 519 23 656 27 546 34 635 37 637 36 663 31 724 29 686 28 642 13 628 33 611 32 610 30 693 7 703 8 676 9 702 11 606 10 653 40 753 17 670 35 612 5 703 20 490 20 611 2 734 6 688 3 728 19 592 18 559 21 559 21 560 22 609 4 721 4 722 25 527 24 426
468 -6.0457237665646621 -6.7691956416286727 20.678181540329195 141 142 141 1.125277997540723 6 670 12 853 16 653 38 748 15 747 39 834 1 843 14 795 26 826 23 740 27 682 34 667 37 669 36 697 31 710 29 669 28 615 13 596 33 596 32 592 7 610 8 661 11 581 40 786 17 595 35 593 5 686 3 709 19 472 18 452 25 497 24 385
2064 9.794411190115456 8.4591083175250699 27.174825405053834 113 116 103 0.90655424592049805 38 242 1 474 34 229 31 230 13 367 12 780 6 666 15 689 39 779 16 478 1 703 14 727 26 683 23 673 27 674 34 656 37 655 36 683 29 655 28 605 13 646 33 587 32 515 30 708 7 209 8 479 8 580 9 615 11 555 10 462 10 542 40 210 17 382 17 653 35 320 35 584 5 602 2 626 3 547 3 638 18 530 21 444 21 591 22 589 4 400 4 692 25 394 25 479 24 374
467 -3.7917314339188848 10.103810884503448 23.386201665422426 153 153 155 0.39806419329014098 6 668 16 652 15 695 39 785 1 842 26 767 23 679 34 664 37 667 36 692 31 701 29 662 28 548 13 588 33 595 32 524 30 714 8 591 9 683 11 638 40 782 35 591 5 682 2 710 3 703 19 562 18 536 21 592 22 590 4 735 25 404 24 460
2063 9.7753895834649533 3.9290521940714331 24.680352850179688 57 50 41 1.6093160138199678 23 354 36 350 13 328 12 402 39 404 8 333 9 351 5 472 20 277 27 343 25 119
466 -3.7917314339188848 10.103810884503448 23.386201665422426 153 153 155 0.39806419329014098 6 667 16 651 15 694 39 784 1 841 26 766 23 678 34 663 37 668 36 691 31 700 29 661 28 547 13 587 33 594 32 523 30 713 8 590 9 682 11 639 40 781 35 590 5 681 2 709 3 704 19 563 18 537 21 593 22 591 4 736 25 405 24 461
463 4.1955358602493762 8.0991114354771732 23.382723473521306 121 121 119 1.3044348276072371 6 664 12 708 16 644 38 617 15 625 39 780 1 785 14 729 26 686 23 617 27 599 34 588 37 593 36 524 31 531 28 541 33 330 33 531 15 509 30 539 7 673 8 655 9 680 11 557 10 626 17 583 17 655 35 586 20 588 18 531
459 -10.630550744088314 8.1852420959920327 24.97219859382383 100 91 92 0.65542535878939434 6 698 12 843 16 640 38 738 15 688 39 821 1 832 14 790 26 816 23 734 27 718 34 700 37 702 36 724 31 739 29 657 28 658 13 647 33 623 32 581 7 670 8 653 9 676 11 553 10 620 40 722 40 813 17 650 35 580 5 714 20 529 2 750 3 742 19 615 18 581 21 518 22 513 4 675 25 543 24 517
2056 5.3706842688804119 -2.5611093839947277 22.256612988719368 159 161 160 0.88600965526837816 29 780 31 821 28 734 33 699 32 702 30 849 35 697
1256 3.1631607992326809 4.4705449350819659 24.17776739882461 243 192 30 0.22605323199124233 1 428 16 140 14 376 12 185 15 144 23 144 26 191 27 351 37 154 36 163 31 138 29 158 28 111 30 150 7 143 9 129 11 131 13 147 10 133 17 141 20 133 19 110 21 122 32 133 22 139 25 128 24 123
2048 -9.2234562103026914 2.0820129156203024 23.033321680622496 99 96 96 1.0872512025098904 14 773 31 586 15 721 38 718 13 553 30 612 11 657 5 698
451 0.45969015674089098 5.1343635218945076 25.169484017705738 51 40 29 0.47516093357186462 6 568 12 831 16 627 38 730 15 677 39 768 1 771 14 717 26 808 23 722 27 711 34 694 37 693 36 720 31 731 29 646 28 593 13 686 33 579 32 571 30 754 7 657 8 563 9 663 11 620 10 605 40 624 17 636 35 509 5 579 20 513 2 498 3 511 19 607 18 572 21 511 22 420 4 339 25 577 24 546
2047 -3.8002273385018341 1.4437903660955234 22.995571302312268 232 181 47 0.23189724161099756 12 747 16 530 13 547 25 451
450 6.1563283580601569 4.3438425859638654 25.627660755860017 203 139 22 0.60624228914047862 6 641 16 624 38 672 15 672 39 762 1 767 14 709 26 748 27 571 34 563 37 569 36 601 31 682 28 590 32 501 30 701 7 571 8 559 9 592 11 538 10 527 40 708 17 564 35 505 5 661 20 507 3 688 18 505 21 508 4 725 24 353
2041 -7.9729744086006704 -8.3534549518285619 21.96288722256109 23 23 23 0.15645251203017091 38 420 13 387 11 241 21 205
444 -8.9990386930417454 1.7921907474301157 23.017440569870683 101 100 98 1.3603845426104193 6 545 12 748 38 583 12 662 15 665 39 527 12 528 15 320 38 338 16 315 1 657 16 617 14 472 26 521 26 641 23 464 27 442 37 315 36 102 26 103 27 91 31 469 29 107 28 287 13 305 33 392 32 388 7 443 7 548 8 539 9 568 11 310 11 438 10 416 40 690 17 541 35 380 20 391 20 489 3 590 2 669 3 669 19 399 19 509 18 269 18 488 21 388 21 556 22 396 22 481 4 651
2038 -10.234101220822536 4.2996099734699289 23.601623245767477 50 49 45 1.4380979990989726 34 444 37 461 13 340 30 518 7 462 39 691 8 453 9 481 21 270
441 -2.1023224848861317 -5.4363386184758049 18.804422412200275 145 145 145 0.61664659386287191 6 672 12 796 16 588 38 700 15 703 39 788 1 795 14 741 26 774 23 686 34 668 37 670 36 699 31 711 29 671 28 618 13 600 33 546 32 593 30 724 7 682 8 663 9 686 11 583 10 562 40 736 17 597 35 537 5 687 20 548 2 717 3 710 19 577 18 546 21 542 22 539 4 702 25 505 24 473
2037 -9.5320774082310908 3.7808373350437949 24.184650512352643 104 101 106 1.725757313321217 36 142 13 334 20 99
440 -7.7719186103478055 -9.6725095750048098 22.648124286954829 26 26 26 0.3383009750674405 6 594 12 791 16 579 39 720 38 695 1 793 14 734 26 769 23 680 27 606 34 666 37 600 31 702 29 665 28 610 33 537 32 525 30 717 7 606 9 625 11 576 10 556 40 651 17 589 35 530 5 607 20 544 2 636 3 552 19 570 18 540 21 538 22 451 25 560 24 464
432 4.6147197450827777 6.3185896757849562 25.897312050102212 93 83 86 0.99823079690030547 6 574 16 563 15 614 31 617 23 601 28 449 7 668 11 625 40 715 35 513 5 669 2 619 21 519 4 677 25 389
429 5.5972850578572837 4.2655955408113186 25.397149627791453 196 135 10 0.65245497514880813 6 565 16 556 38 600 12 763 15 602 39 695 1 764 14 708 26 669 23 592 34 561 36 494 29 562 28 515 13 468 33 507 32 500 7 470 9 346 6 319 11 537 40 707 17 563 35 504 20 122 20 422 2 688 19 431 19 527 21 507
2026 8.7432565461525886 3.9197541081828113 19.700610913489545 246 199 42 1.6908664819457817 29 188 36 186 13 161
1226 2.5516725863062555 3.1032492579244657 16.929311432130298 248 200 73 0.43227515507372255 1 181 14 187
426 -7.1809504965457966 4.391135300392909 26.48215856362172 76 78 67 0.63557185806640704 6 560 16 551 39 685 26 746 7 570 8 446 7 465 9 476 9 585 10 526 17 472 35 399 39 546 5 647 40 757 20 409 3 678 19 298 18 411 21 495 22 492 4 659
2021 -15.384483601751628 5.9933159794537856 32.084152252838599 231 180 84 0.93988909961311329 39 131 13 131 32 125
424 -0.55250834999867038 3.7307951286372503 25.685402533989834 57 51 37 0.47477943882444457 6 443 12 676 16 545 38 593 15 595 39 672 1 673 14 701 26 658 23 585 27 563 34 553 37 565 36 595 31 597 29 553 28 508 13 564 33 500 32 495 30 698 8 447 7 457 9 576 7 563 11 535 10 425 17 551 35 494 5 459 20 410 2 486 3 493 19 422 18 412 18 501 11 454 21 413 22 295 4 483 25 365 24 343
2019 -10.609585026021369 3.1807932302418429 20.274846968857187 236 187 87 0.88091215853104976 27 128 39 540 13 113 19 93
422 -3.5261329657803762 1.9416949764309539 23.187948127548285 154 91 11 0.21460861996728622 6 430 12 664 16 536 15 582 38 584 39 658 26 642 23 572 27 547 34 538 37 551 36 581 31 587 29 547 28 498 13 551 30 611 11 528 17 542 5 556 25 352
2015 -6.0145627376039217 2.0982793236221986 26.189742431226374 33 28 25 1.3973346865052161 29 110 34 96 37 94 13 92 36 111 32 83 30 355 17 312
418 -4.3100328622545172 0.66538635821672365 22.729039768586162 184 124 24 0.50855351029138895 6 425 16 528 38 574 1 650 14 599 23 563 34 532 37 542 31 579 28 403 13 545 33 385 33 493 7 546 10 412 17 538 19 395 18 387 24 422
417 2.2028090717125552 0.15483958514060439 23.515706009530032 236 183 44 0.85952448865413444 6 542 16 527 15 570 14 596 12 354 26 632 23 315 27 73 16 73 34 75 37 296 31 307 33 492 30 337 7 290 8 534 9 562 11 429 10 510 40 687 17 535 35 482 5 552 20 487 2 567 3 587 21 484 4 578
2009 -6.9154374918948385 -2.3177446123181267 20.065131218221559 46 45 49 0.10922158680244087 34 41 36 38 37 43 13 25
412 -10.081067564498019 -2.2984491921005827 18.827280792265924 48 47 52 0.30948503147063994 6 515 16 505 38 549 15 546 39 618 1 731 14 559 26 607 23 538 27 522 34 508 37 517 29 514 31 557 28 475 32 469 7 523 8 510 9 537 11 502 10 484 40 565 17 415 35 456 5 533 20 355 2 546 19 375 18 366 21 358 22 370
407 -8.3541016894072975 9.5096070528234868 24.918731637560239 143 141 142 0.39495490924429705 6 372 16 482 38 517 15 513 39 589 14 652 26 461 27 500 12 459 34 477 36 526 31 535 29 476 32 519 34 590 7 385 10 465 40 204 17 502 35 322 20 328 19 341 18 329 21 330 25 304 24 293
405 12.633334644834047 6.6986790232557114 26.319188606711521 83 76 85 0.20563402571080175 6 580 16 474 38 509 12 568 15 506 39 580 1 585 14 522 27 493 37 486 31 521 29 345 28 339 13 485 33 426 30 403 10 458 35 420 19 448 18 437 21 528 25 289 24 282
401 7.4819498076850683 5.0722133794278221 24.257822916834506 243 238 244 0.52102688305830602 6 469 16 459 15 369 34 359 2 614 3 623 21 306 22 431 4 369
1996 11.133795917045957 2.7343539930570322 24.747121365612426 186 170 91 1.5628637358847259 1 402 31 340 28 300 6 448 14 483 27 448 30 364 8 440 9 471 5 571 18 399 21 419 4 599
398 -8.9475719205272952 4.2052632157860357 23.325688595661408 255 216 61 0.22959447758669599 6 452 16 452 15 605 1 566 14 626 26 662 23 595 37 568 31 606 29 564 28 518 13 471 37 462 33 411 32 409 7 464 8 455 11 456 40 486 17 470 35 398 20 267 2 122 21 271 22 109 25 465
1990 5.1574097744060436 -1.1286162539741651 22.792542991786199 113 109 106 0.40840530393249302 31 799 28 714 35 672
393 -9.8600280695868392 2.6163559057999146 20.797124191947422 98 93 87 0.69926742264885389 6 549 12 535 16 443 38 479 15 472 39 536 1 665 14 484 26 408 23 472 14 613 27 449 34 314 36 476 31 341 29 324 28 92 16 105 33 289 32 272 30 134 7 555 8 438 9 572 11 447 40 307 17 463 35 387 5 640 20 399 2 332 3 594 19 407 18 397 21 397 22 398 4 465
386 -6.8805379856402915 -0.57228038094468547 21.770064738682592 191 138 60 0.2759890588100633 6 273 12 508 16 427 38 457 15 451 39 511 1 539 14 460 26 502 23 457 27 436 34 417 37 432 36 451 31 457 29 413 28 395 13 422 33 379 32 372 30 600 23 557 7 283 8 284 11 284 10 276 40 275 17 294 17 438 35 243 5 280 20 242 2 315 19 263 18 256 21 235 22 52 25 345 24 325
1983 2.5960535777724543 -4.8510010041713532 21.641501735742402 21 23 26 0.22842720184464341 29 498 31 639 28 557 33 458 32 450 30 659 35 446 3 557
1981 -5.2024294332501357 -1.4332468154487732 22.383141264450447 255 224 62 1.0695233487272178 12 637 29 529 31 662 28 483 33 483 30 738 35 544
384 -8.272639760224008 -0.86796711592899389 19.588598868492916 56 56 66 0.24438954519122813 6 411 16 423 38 453 39 506 1 641 26 500 23 450 34 412 37 429 31 451 29 408 28 264 32 370 30 465 8 423 9 295 11 418 40 452 17 291 35 361 5 425 2 458 3 464 18 250 22 257
1980 -4.3308394839831585 -4.5412526661457324 20.209554599290136 148 151 152 1.6327219602154912 1 501 28 469 39 290 13 11 5 14 20 12
383 -8.5363982591765062 -0.88607368522623919 19.569506562350423 8 160 200 0.42654972349059139 6 268 12 642 16 422 38 566 1 532 14 587 26 499 26 623 23 555 34 410 29 407 13 418 33 375 32 369 7 425 9 450 11 416 10 404 40 450 17 434 5 274 20 238 2 305 3 306 18 248 21 42 22 45 4 52 25 236 24 221
1979 -6.8976448764457192 0.75562226414751976 21.880372556963035 37 39 36 0.55882907088833311 37 441 28 401 13 69 23 93 33 384 21 383
382 -8.5354491706060571 -0.88996792236029165 19.564484599323464 8 160 200 0.42372056645995371 6 269 16 421 39 505 1 531 26 498 34 411 37 428 31 455 29 406 13 419 33 376 32 368 30 596 8 278 11 417 40 451 35 239 5 275 20 239 2 304 3 305 18 249 21 43 22 44 4 51 25 235 24 222
1178 -6.4066482767358597 -0.74228542124267383 21.831749149738275 236 178 6 0.30673937595618611 6 683 1 811 7 635 8 621 9 646 40 747 35 550 5 695 2 727 3 720 21 549 22 551 4 712
381 -10.161557001387553 -1.5617409050701139 19.36285444196777 120 121 123 0.59002998770338544 12 624 16 414 6 526 15 436 39 625 1 626 14 572 26 360 27 53 7 528 8 515 9 544 11 408 10 495 40 438 17 421 5 417 20 365 2 450 3 455 19 379 18 237 21 367 22 381 4 428 40 570
376 -10.002717674861227 -1.8927311736935686 19.115012141209036 117 119 118 0.42045105187119974 6 253 16 405 38 444 12 495 15 431 39 496 1 517 14 560 26 356 23 41 7 265 8 411 9 275 11 400 10 385 40 434 17 418 5 259 20 227 2 286 3 291 18 233 21 34 22 36 4 263 25 37
1972 -7.0305841336804598 0.31213024449716825 22.239144006941739 47 48 57 0.33086985731367263 15 65 23 312 28 274 30 345 13 53 25 241
375 -10.006242628947668 -1.8936479661099055 19.119130557423894 117 119 118 0.45640701659708388 6 254 16 404 38 445 12 496 15 430 39 497 1 518 14 561 26 355 23 40 27 279 7 266 8 412 9 276 11 401 10 386 40 435 17 419 12 619 5 260 20 228 2 287 3 292 18 232 21 35 25 36
1969 -2.7273192486807583 10.507219024671894 20.754939455800528 138 138 140 0.12449345358198673 39 472 28 212 7 234 8 224 11 238 5 393 2 431 3 426 4 404
372 6.74252768608509 -4.0330458859241913 21.331075497111787 56 60 61 0.75524842463048592 6 243 12 606 16 392 39 488 1 504 1 614 14 435 14 550 26 478 23 432 27 404 27 509 34 396 37 253 31 19 29 376 28 372 13 396 33 358 32 345 7 405 8 10 9 419 11 256 10 249 40 241 17 269 35 18 5 24 2 270 19 238 21 22 21 211 4 255 4 549 24 207
1967 6.4071872493906321 8.0494986375452395 24.531865005443656 247 204 87 1.7651227654637087 12 577 14 249 28 197 38 404 9 225
370 5.8835518032006116 -4.1034139202681725 21.025200910505625 140 147 157 0.46927541207000784 6 389 12 605 16 390 38 533 15 534 39 605 1 613 14 549 26 703 23 526 27 508 34 495 37 505 36 541 31 546 29 500 28 471 13 516 33 464 32 453 30 661 7 402 8 403 11 389 10 380 40 417 35 333 5 239 20 214 19 362 18 211 22 22 4 23 25 417
1165 2.8695459055181973 4.0793254536006422 25.181563619609381 236 179 2 0.59998399181287876 12 545 15 481 38 490 1 679 26 538 36 490 9 478 11 457 10 436 40 615 17 474 35 400 5 466 20 419 2 594 3 608 21 421 4 594
